ncols 118
nrows 32
xllcorner 1.21508
yllcorner -0.483
cellsize 0.0085
nodata_value -99999
2.542837623414512804e-01 2.471390460491384999e-01 2.399943306786592734e-01 2.328496134870212952e-01 2.257048948477526906e-01 2.185601752885240057e-01 2.114154553378590207e-01 2.042707355342545383e-01 1.971260163621028350e-01 1.899812984799854332e-01 1.828365821676445346e-01 1.756918662422932154e-01 1.685471544739787775e-01 1.614024030776759489e-01 1.542578410141031975e-01 1.471142275768377583e-01 1.400255520021255751e-01 1.330998832792716080e-01 1.263750816368640062e-01 1.198485014884490274e-01 1.135177258225372882e-01 1.073802543201453769e-01 1.014336427815134972e-01 9.567549231560532053e-02 9.010345390295178281e-02 8.471523617868784162e-02 7.950861102993314611e-02 7.448141902977647999e-02 6.963157413412818242e-02 6.495706783570480425e-02 6.045597279103075150e-02 5.612644598770011317e-02 5.196673151204405511e-02 4.797516297875683428e-02 4.415016568119357887e-02 4.049025851738364407e-02 3.699405580748015010e-02 3.366027403465901569e-02 3.048772652338455763e-02 2.747532296973478200e-02 2.462207405786651440e-02 2.192709302343127248e-02 1.938959729692816061e-02 1.700891025538775816e-02 1.478446311078500733e-02 1.271579696462157849e-02 1.080256552602504999e-02 9.044543625084238217e-03 7.441616708160345324e-03 5.993786383065476987e-03 4.701182868989076807e-03 3.564049676572128740e-03 2.582799878272394687e-03 1.757918400426862699e-03 1.090037851615732441e-03 5.805272912627499823e-04 2.276865076778502271e-04 4.197673084833143810e-05 -4.402452855598983973e-06 5.618743504673449146e-07 4.247143942912794241e-08 -9.625363912681236997e-08 5.676907612484113683e-08 -2.125001092691804552e-08 5.808912907035000345e-09 -1.469472674282043333e-09 1.874986005022119992e-10 4.954855902584875567e-11 -4.823094247510114210e-11 2.431864597434107721e-11 -9.042863807940991107e-12 2.104458256265444715e-12 -3.972580350919838798e-13 3.092336880847191966e-14 2.450341105432105752e-14 -1.546217064442109683e-14 6.297439916485433807e-15 -2.247224596724701408e-15 5.744483132164704969e-16 -9.614770217477076933e-17 2.794189106052661476e-19 1.127004050234393570e-17 -5.864574353244561659e-18 2.197843736392042484e-18 -7.693613612069998267e-19 2.050731811346568133e-19 -2.975845432898450265e-20 -3.764072184405762531e-21 6.023296880628473124e-21 -3.157008386134002547e-21 1.103534787419801732e-21 -2.657946295336612015e-22 5.315018269248881506e-23 -6.071460442989521675e-24 -2.263415739531732410e-24 1.736186182370142242e-24 -6.747489956775404223e-25 2.505398647102331188e-25 -8.635759999164828855e-26 1.644310980291258810e-26 -7.697479014610466808e-28 -9.810222930270057278e-28 6.583463427981852768e-28 -2.771379163510422531e-28 8.869225135549920285e-29 -2.191752208751277400e-29 3.489686904192157592e-30 8.530349804765577800e-32 -4.958999426005574935e-31 2.904939010604337328e-31 -1.121725074563290947e-31 3.014881644655440688e-32 -6.557793687905060439e-33 1.031265135361499159e-33 1.739390968468472294e-34 -2.007424214494435660e-34 8.781404995411874767e-35 -2.924408627460551722e-35
2.563605465690472762e-01 2.492158282973180872e-01 2.420711116224846249e-01 2.349263963640218777e-01 2.277816795158250363e-01 2.206369611200448555e-01 2.134922417039053222e-01 2.063475218007531919e-01 1.992028019018693696e-01 1.920580826599254665e-01 1.849133642301326597e-01 1.777686479510218465e-01 1.706239335548423441e-01 1.634792048331075998e-01 1.563345591061260920e-01 1.491902318734493471e-01 1.420877872418707388e-01 1.351299708129011512e-01 1.283644318665874695e-01 1.217904624367887739e-01 1.154066680208183926e-01 1.092114432773536037e-01 1.032031452301470920e-01 9.738010453829652746e-02 9.174063140692360896e-02 8.628302642755589225e-02 8.100559241073797268e-02 7.590664541326770653e-02 7.098452481259422131e-02 6.623760247241859689e-02 6.166429103815739693e-02 5.726305141990516157e-02 5.303239953361949671e-02 4.897091237562255228e-02 4.507723350773627097e-02 4.135007802905397295e-02 3.778823813590700270e-02 3.439059138444597319e-02 3.115609471399309952e-02 2.808379132949195139e-02 2.517281500811550943e-02 2.242239343014369030e-02 1.983185145353785414e-02 1.740061437787866067e-02 1.512821124228827183e-02 1.301427820207057100e-02 1.105856266167577068e-02 9.260933149510037002e-03 7.621368828929571577e-03 6.139967078594332078e-03 4.816957013932770051e-03 3.652684862004179200e-03 2.647672433494270214e-03 1.802518533001395539e-03 1.117976495888990804e-03 5.955682469680934239e-04 2.335759049682428117e-04 4.357463423018355565e-05 -5.303525172698932162e-06 9.281381403773532053e-07 8.519434538030356171e-08 -1.498744377418525049e-07 6.659273120692417653e-08 -2.239731428742641256e-08 6.525684787536137273e-09 -1.513073160146542740e-09 2.009366616366787828e-10 6.281029996881240169e-11 -5.812360800413021359e-11 2.312370623900923392e-11 -6.624189608277829479e-12 1.878190932453343853e-12 -4.135141090645442036e-13 2.823758395117742785e-14 2.646773070207075488e-14 -2.080502089772977075e-14 9.249048405457418013e-15 -2.646572039330582061e-15 6.796320014415471582e-16 -1.066399049622136717e-16 2.123751250736773726e-19 9.349782184416972364e-18 -6.031660129209924599e-18 2.710589225557286885e-18 -8.069379806099007857e-19 1.799473703850318355e-19 -3.055334826764823891e-20 -3.748137400987381747e-21 5.254911679031965026e-21 -2.342671070584897884e-21 7.773945271705056108e-22 -2.408695145541713066e-22 6.755760399234029066e-23 -6.962573866145529040e-24 -2.413229734933390336e-24 2.136424685156040993e-24 -1.012751829116547062e-24 3.504908793328352692e-25 -9.572548291099138810e-26 1.830117038471038807e-26 -1.182988932213526952e-27 -1.363110510375123027e-27 8.061377437413724697e-28 -2.947855529183622110e-28 8.509383224401186862e-29 -2.302786886946147567e-29 5.096418270514119818e-30 1.032941077420325259e-31 -4.845778655249721312e-31 2.149649296582966177e-31 -6.773324959864272944e-32 2.004793590229181762e-32 -6.011570544757567565e-33 9.691298501713204749e-34 1.665727387521337931e-34 -2.358938180980188647e-34 1.207745066519555929e-34 -3.898290352109003789e-35
2.585560058246639814e-01 2.514112862914170132e-01 2.442665676854992307e-01 2.371218505322293113e-01 2.299771351698889910e-01 2.228324188150395957e-01 2.156877007786260902e-01 2.085429815889258687e-01 2.013982617491500149e-01 1.942535418713052242e-01 1.871088221806571084e-01 1.799641041176377743e-01 1.728193860438538565e-01 1.656746702436149299e-01 1.585299702494906704e-01 1.513853493485421142e-01 1.442712430783282263e-01 1.372823831630262115e-01 1.304754288047428878e-01 1.238526572841035095e-01 1.174137252030136025e-01 1.111580247830496609e-01 1.050848210748954042e-01 9.919325223617406206e-02 9.348235800936156858e-02 8.795110173618997385e-02 8.259838147252634988e-02 7.742304666776923805e-02 7.242391379094176296e-02 6.759978080611199480e-02 6.294944050907161359e-02 5.847169274549594842e-02 5.416535556777281324e-02 5.002927540155580055e-02 4.606233630507700766e-02 4.226346840929817716e-02 3.863165911714149664e-02 3.516595740300345468e-02 3.186547610595197311e-02 2.872940091574456567e-02 2.575699601911014824e-02 2.294760946207261704e-02 2.030067829620816125e-02 1.781573357387230411e-02 1.549240525545144548e-02 1.333042709092864021e-02 1.132964238345665273e-02 9.490015277296093288e-03 7.811620469485709879e-03 6.294652983917277921e-03 4.939443033168537320e-03 3.746441520705729496e-03 2.716283083497418940e-03 1.849681798774055518e-03 1.147512295442265108e-03 6.115052440139433091e-04 2.396631852293368455e-04 4.538072607774139728e-05 -6.032827568694450254e-06 8.917125000964598987e-07 5.825659081739281446e-08 -1.109744695719977682e-07 6.199288099201922556e-08 -2.556197985778234538e-08 7.152077409669719829e-09 -1.519893579097803654e-09 1.913496160229358071e-10 5.148273941462100304e-11 -4.891121434870068065e-11 2.455412612738562593e-11 -9.636393409986765441e-12 2.350071951343494207e-12 -4.472140472274709117e-13 3.726233458137872982e-14 2.993437499739981941e-14 -1.791659592635489466e-14 6.196436019987582632e-15 -1.850198037134912340e-15 4.753872140284627015e-16 -9.208005250217905547e-17 3.234256144405991310e-19 1.341499179712999294e-17 -7.543385702582171759e-18 2.973599567632941143e-18 -9.145952399926243194e-19 2.356056863007809018e-19 -3.348729738788774212e-20 -3.674430000080575770e-21 5.417351673793805917e-21 -2.825432484233235093e-21 1.083260247950179410e-21 -2.804424668756583921e-22 5.771471414268457225e-23 -7.580351794204847118e-24 -2.959860174104956909e-24 2.492420330571311475e-24 -1.022269840815167149e-24 3.100640043305846339e-25 -7.845762983097448859e-26 1.701028592752509062e-26 -1.034708702438520710e-27 -1.454658365103455885e-27 1.051118532930386615e-27 -4.571452730593014751e-28 1.410421633140366355e-28 -2.918249273171378504e-29 4.046905987818191357e-30 9.418451287150132548e-32 -5.766377741379327034e-31 3.565149612310765540e-31 -1.457762072257647999e-31 4.226640951963680746e-32 -8.460816320719840007e-33 1.223081699714606407e-33 1.882189362401752212e-34 -2.158743116450320030e-34 7.115797093590109319e-35 -5.169679860740616952e-36
2.608701392176296374e-01 2.537254192703895517e-01 2.465806995491075515e-01 2.394359805775094219e-01 2.322912628793207812e-01 2.251465469782704953e-01 2.180018312883031661e-01 2.108571137544627550e-01 2.037123948844504484e-01 1.965676752408640482e-01 1.894229552045147702e-01 1.822782357613354776e-01 1.751335161898332493e-01 1.679887995515251808e-01 1.608440831417278227e-01 1.536993876964922179e-01 1.465758565479445275e-01 1.395577754484998156e-01 1.327091320848965139e-01 1.260364624406515588e-01 1.195405184127583398e-01 1.132218037305608160e-01 1.070805741174062353e-01 1.011168797393287022e-01 9.533058292229169839e-02 8.972137999626791927e-02 8.428883368213832550e-02 7.903239162876207757e-02 7.395140529409002794e-02 6.904514997586870539e-02 6.431284354785536672e-02 5.975366384952509463e-02 5.536676473867085946e-02 5.115129084900284923e-02 4.710639112262560851e-02 4.323123231585555143e-02 3.952501276066145569e-02 3.598696623072550338e-02 3.261637374791093169e-02 2.941257267569971981e-02 2.637496491375340008e-02 2.350302459775868713e-02 2.079630539490501598e-02 1.825444748181362375e-02 1.587718428901348233e-02 1.366434909451104580e-02 1.161588266570399985e-02 9.731845992849923188e-03 8.012410435916132376e-03 6.457869925417403061e-03 5.068657017779403667e-03 3.845329770606827676e-03 2.788635730760717375e-03 1.899410794337661650e-03 1.178662869443982764e-03 6.282146313151208260e-04 2.465888300770587970e-04 4.550345095118692943e-05 -4.836768082825267644e-06 7.175390009779744244e-07 6.807427074432180289e-08 -1.349671070266949426e-07 6.962664312881992786e-08 -2.567700490845814226e-08 7.438367671230582939e-09 -1.504599648057621359e-09 1.646537674344524522e-10 4.792267753256007669e-11 -4.824291088263383719e-11 2.224267565416781475e-11 -7.089994044409729727e-12 2.037352524812147446e-12 -4.392084131947712775e-13 3.285762390875524546e-14 3.110454401473075036e-14 -2.350227242605579994e-14 1.068103035649456154e-14 -3.740436607791464298e-15 1.025267929763294960e-15 -1.655169189404078134e-16 4.212741824063315484e-19 1.659345069162565746e-17 -8.467058899918642319e-18 3.107273948375753681e-18 -1.000367372758606417e-18 2.195835995138767592e-19 -3.457298243894354731e-20 -4.753451702516686242e-21 6.634195867956943202e-21 -2.919069408173013680e-21 1.005063679044399426e-21 -3.154633712947556958e-22 6.473654003230074606e-23 -5.818941743277723895e-24 -2.221319402571027285e-24 2.075264121615441567e-24 -9.978189393508936537e-25 3.396719176847374191e-25 -9.217708391725522473e-26 1.868012623388090409e-26 -1.056097148508451848e-27 -1.132107367314243847e-27 6.102783720018022948e-28 -2.089800472576904491e-28 6.476134648665218478e-29 -1.997222688892539129e-29 3.991528773800647226e-30 9.150923197082079498e-32 -4.821692798026766454e-31 2.465072681803051101e-31 -8.678845224646325585e-32 2.582482209029423004e-32 -6.295892266943723496e-33 9.782454512585884469e-34 1.662910241431302891e-34 4.552047078184520456e-36 -7.656734840197912722e-35 -2.168309467429749463e-35
2.633029455111531303e-01 2.561582261326981746e-01 2.490135062473660121e-01 2.418687863772877866e-01 2.347240670445942534e-01 2.275793487714659613e-01 2.204346320796165826e-01 2.132899167955674136e-01 2.061451999372321819e-01 1.990004815479716194e-01 1.918557621480455888e-01 1.847110421602710106e-01 1.775663229801079379e-01 1.704216001585699691e-01 1.632768953846757409e-01 1.561321489967255616e-01 1.490014461033953852e-01 1.419566806052243446e-01 1.350665656467448517e-01 1.283432610869530699e-01 1.217887121949660506e-01 1.154046497985373870e-01 1.091924183623041583e-01 1.031530761374391675e-01 9.728740057928307594e-02 9.159592100374150392e-02 8.607894541194160976e-02 8.073658684206978797e-02 7.556879514448343327e-02 7.057538048789484264e-02 6.575603621877701421e-02 6.111036186866367070e-02 5.663788462100806387e-02 5.233807921628780280e-02 4.821038689683702916e-02 4.425423443173357591e-02 4.046904558888074488e-02 3.685425621098141480e-02 3.340932744396971771e-02 3.013375773404817701e-02 2.702709396321568980e-02 2.408894184225796389e-02 2.131897567630411036e-02 1.871694761437482299e-02 1.628269649117592907e-02 1.401615636720670785e-02 1.191736633339138610e-02 9.986484694977827356e-03 8.223779870614558382e-03 6.629645181472241730e-03 5.204616288578423761e-03 3.949359249824919808e-03 2.864736997185983632e-03 1.951707953724214194e-03 1.211411149086791652e-03 6.458395971134369773e-04 2.534940902219241657e-04 4.732770363766592418e-05 -5.751828918490143881e-06 9.859172022315930930e-07 7.644480719721877926e-08 -1.475597308140955474e-07 7.518137524115875085e-08 -2.738598675931118447e-08 8.279007304465605572e-09 -2.065545552688401919e-09 2.707412123913125120e-10 7.043022265627472745e-11 -6.168511444856893677e-11 2.615037348851242966e-11 -9.003008599467941541e-12 2.754586896272074398e-12 -6.456074260942203440e-13 4.533505274272255150e-14 3.637849650984758538e-14 -2.344094950644783517e-14 9.523260228287958857e-15 -3.219630595177082420e-15 8.206196760209324143e-16 -1.407044125587600725e-16 3.747994725003752158e-19 1.558497823967567670e-17 -8.245041930840411856e-18 2.774396418393830622e-18 -6.997081781598245503e-19 1.739570387208093244e-19 -2.884720785698532979e-20 -3.200899837230806225e-21 5.259109073207277591e-21 -2.827839366806128316e-21 9.910136238563013987e-22 -2.697898319841391683e-22 6.872279333933553376e-23 -9.022093383183472641e-24 -3.134029293868980938e-24 2.646063494308380797e-24 -1.196874097762027933e-24 4.192863533844290728e-25 -1.155110117208762832e-25 1.985952311713048673e-26 -1.217876270428302423e-27 -1.670185190970048995e-27 1.143023744768280328e-27 -4.405798088817084810e-28 1.130349683951940524e-28 -2.612723798180607475e-29 4.642812693387910907e-30 1.076122083009897841e-31 -5.905833869886882062e-31 3.131156008822097364e-31 -1.124573008418338152e-31 3.354391638055747739e-32 -7.205549463446134105e-33 9.155192654022590078e-34 -5.254218936432350962e-34 7.882289670567702105e-34 -2.819413151073056127e-34 4.113435930293504490e-35
2.658544230791070606e-01 2.587097053930093593e-01 2.515649864360665622e-01 2.444202667288145336e-01 2.372755467917897210e-01 2.301308271455977383e-01 2.229861083098102770e-01 2.158413908067080278e-01 2.086966751436596657e-01 2.015519591784586950e-01 1.944072414861578724e-01 1.872625221831609454e-01 1.801178042643239163e-01 1.729730753703767332e-01 1.658283944434002788e-01 1.586835348637784249e-01 1.515477217881379679e-01 1.444794638110007134e-01 1.375486949617805432e-01 1.307744231813469937e-01 1.241600068670878493e-01 1.177085048590069405e-01 1.114224585945525481e-01 1.053040434363949479e-01 9.935505501667474260e-02 9.357694920340785261e-02 8.797087092083459570e-02 8.253768709409146920e-02 7.727801893594410387e-02 7.219227372784614571e-02 6.728067535020959555e-02 6.254329359747749784e-02 5.798007104363342434e-02 5.359084893404968131e-02 4.937539068278091331e-02 4.533340369170820588e-02 4.146455947252811886e-02 3.776851215512751908e-02 3.424491552850206233e-02 3.089343875640758463e-02 2.771378091287387754e-02 2.470568448229559788e-02 2.186894796654552733e-02 1.920343773848251848e-02 1.670909927804515790e-02 1.438596792451796690e-02 1.223418117015431794e-02 1.025399426395835929e-02 8.445772276343636170e-03 6.810007584249233061e-03 5.347339025556731643e-03 4.058540542390023757e-03 2.944592708049913188e-03 2.006576005400010233e-03 1.245759571517747336e-03 6.643632387967072974e-04 2.605893233434448822e-04 4.937356918911970201e-05 -6.565842005940684831e-06 9.911133419949309698e-07 8.165037342183411699e-08 -1.544764979798781959e-07 7.758696921398372181e-08 -2.844373994147669667e-08 8.249304125941622406e-09 -1.890908282872077615e-09 2.228078073903158331e-10 5.918881673504996570e-11 -5.622878147032798483e-11 2.595223865338808304e-11 -8.987090570727947529e-12 2.669435011464214304e-12 -5.514031846768375932e-13 4.049844016492390036e-14 3.890057732205539328e-14 -2.731502086422382409e-14 1.019649197207990967e-14 -2.578158772685498564e-15 5.465795392043941200e-16 -1.035241575366476992e-16 3.132164569085630244e-19 1.425257088203260109e-17 -8.335184005654928081e-18 3.205832760471333218e-18 -9.870751297610603506e-19 2.300321554997369717e-19 -3.978137400345127707e-20 -4.439886550156393278e-21 5.713536849995727209e-21 -2.482808234028468463e-21 9.121952303054271999e-22 -2.709990131087319678e-22 5.519751139846112586e-23 -6.158652085285409446e-24 -2.342603204647728805e-24 2.120974879305578029e-24 -9.173640860110394413e-25 2.463996880310076346e-25 -5.532034188491130270e-26 1.176229570304869261e-26 -9.338528386506105523e-28 -1.006893641528156925e-27 5.790852307611493825e-28 -2.468553030906908200e-28 1.031744763325630790e-28 -3.231798179783470507e-29 5.184181964608292754e-30 1.185000769343661862e-31 -6.164173914848969863e-31 3.254589366161039641e-31 -1.239920839290597891e-31 3.919151372517530046e-32 -4.441036022065990488e-33 -1.129065762033524458e-32 -1.801192901805333395e-33 1.857825186150263083e-33 6.941696340452295999e-34 -1.904119632178746754e-33
2.685245704357901997e-01 2.613798551372226164e-01 2.542351383476871285e-01 2.470904200114687477e-01 2.399457006475107235e-01 2.328009807748201432e-01 2.256562609113406115e-01 2.185115415780425896e-01 2.113668232903903321e-01 2.042221065769641575e-01 1.970773912915081416e-01 1.899326741933837770e-01 1.827879577185272664e-01 1.756432271923534238e-01 1.684985630010514268e-01 1.613535993779442179e-01 1.542143250144133171e-01 1.471262633492956273e-01 1.401564007109547261e-01 1.333312814656590906e-01 1.266561223660105096e-01 1.201353744193833506e-01 1.137728985751115945e-01 1.075721039841736476e-01 1.015359181886543588e-01 9.566683187313490544e-02 8.996692739410722117e-02 8.443791563069012740e-02 7.908117291335897692e-02 7.389777856755684604e-02 6.888855180146410961e-02 6.405408736751765086e-02 5.939478952906043774e-02 5.491090405693577897e-02 5.060254811414971465e-02 4.646973799352997758e-02 4.251241475073481990e-02 3.873046782925293474e-02 3.512375680979908099e-02 3.169213143841827229e-02 2.843545009963387854e-02 2.535359690630125187e-02 2.244649757889633293e-02 1.971413428558500824e-02 1.715655961183342945e-02 1.477390982559093416e-02 1.256642003394772139e-02 1.053444113228595852e-02 8.678433552018121472e-03 6.998987557100219171e-03 5.496844240486179443e-03 4.172885206974968723e-03 3.028208076114497199e-03 2.064017889794150708e-03 1.281720831427242240e-03 6.836936865692290694e-04 2.683739788367720805e-04 5.028038013336008513e-05 -6.194496077925462909e-06 1.105560874120385618e-06 8.269940585158325288e-08 -1.586599837249466579e-07 7.952083408515168735e-08 -2.738388390355335610e-08 7.447818391888532847e-09 -1.785851886330932584e-09 2.393877513185171012e-10 7.631540562686545480e-11 -7.980163236180543654e-11 3.731044712542978210e-11 -1.126643117982522639e-11 2.472792229502607496e-12 -4.698256087907432273e-13 4.131720565814317516e-14 3.594475270732694214e-14 -2.369099382518039171e-14 9.339737590884572831e-15 -3.116334841162690858e-15 7.937827185484133564e-16 -1.352498649704553875e-16 3.425815464617917699e-19 1.492353522797465619e-17 -8.769563631027053862e-18 3.618290635763992021e-18 -1.176668014630941665e-18 2.592158357207715837e-19 -3.583773789581564047e-20 -4.548964681356490251e-21 6.824154566881589611e-21 -3.182558587126934344e-21 1.022626175432621123e-21 -3.023084212971203891e-22 7.128355820471541401e-23 -8.158672873118489309e-24 -2.813099936630676938e-24 2.245897240349086577e-24 -9.896275476728113847e-25 3.839906814377244720e-25 -1.179399733440866733e-25 2.023449511656214550e-26 -1.238377893850117252e-27 -1.671134767734973751e-27 1.056901360279951829e-27 -3.794149720997430875e-28 1.098633037694146022e-28 -2.694580941939108603e-29 4.845411283003362549e-30 1.005847435625231686e-31 -5.068681947580807610e-31 2.721415437086352638e-31 -1.148340017629766348e-31 -9.863622463339900962e-32 2.123507279935309962e-31 -3.102293108891761410e-32 -3.953255378186032958e-33 -1.029261590746762014e-32 4.821808162749811281e-33 5.704154156224970102e-32
2.713133935882509618e-01 2.641686758050269535e-01 2.570239597699722767e-01 2.498792441399847464e-01 2.427345266790798262e-01 2.355898078793636496e-01 2.284450882574772801e-01 2.213003683329002602e-01 2.141556486155027639e-01 2.070109296523167108e-01 1.998662118654490893e-01 1.927214959492617452e-01 1.855767810343864344e-01 1.784320556376690348e-01 1.712873880321450770e-01 1.641423975580107164e-01 1.570008560550730792e-01 1.498968446195732274e-01 1.428904592497145243e-01 1.360151029103293663e-01 1.292787784799509232e-01 1.226873146540670007e-01 1.162460344192304540e-01 1.099597036569050779e-01 1.038325068810038582e-01 9.786808952255017513e-02 9.206958388996086540e-02 8.643964822335989395e-02 8.098050723404931484e-02 7.569399502355105003e-02 7.058159833986782372e-02 6.564449924487809895e-02 6.088361636092644996e-02 5.629964415967732977e-02 5.189308995512519757e-02 4.766430843163865783e-02 4.361353366457833974e-02 3.974090868417149564e-02 3.604651269814480863e-02 3.253038613148604569e-02 2.919255366815058650e-02 2.603304549430030326e-02 2.305191694950389780e-02 2.024926679412589539e-02 1.762525429998477305e-02 1.518011536889471783e-02 1.291418098076005556e-02 1.082789535874533436e-02 8.921812040311009190e-03 7.196617107708090481e-03 5.653151936822324065e-03 4.292405212388365580e-03 3.115589135666578004e-03 2.124036603387313791e-03 1.319296917958639190e-03 7.038406389658783194e-04 2.766384782216345503e-04 5.100357605235427474e-05 -5.396561769169566515e-06 7.949927373304258877e-07 7.173396629695622002e-08 -1.402695415685359528e-07 6.936963320423658153e-08 -2.494407724297945066e-08 8.356272562027651667e-09 -1.907301135878041477e-09 2.430933697293297574e-10 7.280490330598282287e-11 -6.534244253923850328e-11 2.759601047357007809e-11 -1.000785683788872351e-11 3.162249788697494246e-12 -6.358924998947403167e-13 4.819635427328839580e-14 4.361496144836835596e-14 -3.009141359679352551e-14 1.239486486754624295e-14 -4.282134018775078177e-15 1.206877308355194929e-15 -1.961876316698547952e-16 4.427170530362214872e-19 1.696030154246410735e-17 -8.466445134418132151e-18 3.053742975915298849e-18 -9.854428721136369445e-19 2.842712404756132564e-19 -4.724054239848919555e-20 -5.942903864704710365e-21 8.647622485730571638e-21 -4.275691259354042617e-21 1.573160007367151103e-21 -4.001848657151211552e-22 7.916415290329860544e-23 -7.762871589114592752e-24 -2.702363321823065171e-24 2.401045451114648758e-24 -1.129238538015017162e-24 3.734834530450050951e-25 -9.270979135225222187e-26 1.854573414988100329e-26 -1.142201281924356865e-27 -1.277053263248065294e-27 7.409348393219697657e-28 -2.877921666606900271e-28 9.728197072231459003e-29 -2.371324040879152434e-29 3.594498962996605735e-30 9.433262570638276396e-32 -5.574973757983028106e-31 3.943819464200871908e-31 -2.480902088706049844e-31 6.576002663770946654e-32 5.107546676265072360e-32 1.853259397057445689e-32 2.396790195212146950e-32 -2.244580879543200154e-32 -2.804724712344631611e-31 3.046158290020000226e-31
2.742208934190012992e-01 2.670761738702028820e-01 2.599314551998771483e-01 2.527867379237945245e-01 2.456420224460527657e-01 2.384973061769944114e-01 2.313525882242989662e-01 2.242078691054153750e-01 2.170631493274158830e-01 2.099184294480262170e-01 2.027737098053577491e-01 1.956289915542933078e-01 1.884842734284375432e-01 1.813395576021613054e-01 1.741948646789066857e-01 1.670499558773234916e-01 1.599069123098981748e-01 1.527906719770913135e-01 1.457514481070915635e-01 1.388270896753008021e-01 1.320296727503443845e-01 1.253664159991327021e-01 1.188442455298514555e-01 1.124694089085191279e-01 1.062474849128723781e-01 1.001834062285994059e-01 9.428148091674085074e-02 8.854543097006260799e-02 8.297843492850967562e-02 7.758317541793796623e-02 7.236188863618930878e-02 6.731641435837978915e-02 6.244824512181013781e-02 5.775857367517331364e-02 5.324833806264817754e-02 4.891826396763455237e-02 4.476890413668206670e-02 4.080067485296429847e-02 3.701388953589865305e-02 3.340878961750144704e-02 2.998557289432835990e-02 2.674441958318432219e-02 2.368551632475929258e-02 2.080907838638286489e-02 1.811537031650021015e-02 1.560472530176186881e-02 1.327756739679343025e-02 1.113443070622158713e-02 9.175958584352335301e-03 7.402929800138536090e-03 5.816283306300257076e-03 4.417112443109737219e-03 3.206743589175706666e-03 2.186635191712385691e-03 1.358473793966110971e-03 7.249220321805100158e-04 2.848448306344115392e-04 5.316929533810784336e-05 -6.266023785406450462e-06 8.600023689989952491e-07 6.390606287775520602e-08 -1.287060458757712588e-07 7.271435023410641784e-08 -3.014036195377559242e-08 9.644052228777981073e-09 -2.404702465588721295e-09 2.628783673490192131e-10 6.930114666966228702e-11 -6.856791582501596536e-11 3.225374081732236999e-11 -1.043506242222063311e-11 2.899263182162706086e-12 -5.733642627429108253e-13 3.401215325843713924e-14 2.793643833700749355e-14 -2.086644036879194693e-14 1.026948202713209796e-14 -3.712870894885358551e-15 9.545347833187430335e-16 -1.713836523268645006e-16 5.077443091721113445e-19 2.349974834166072354e-17 -1.406187707677667755e-17 5.175951330464550689e-18 -1.244926057734457283e-18 2.369563453070347254e-19 -3.242794778546375489e-20 -3.961437582112319085e-21 6.506296249428801565e-21 -3.414447956208342273e-21 1.165111042774607940e-21 -3.118368754734704385e-22 7.446004207901065099e-23 -8.672099064655633411e-24 -3.548579539205819768e-24 3.038683399003548290e-24 -1.250637700477753049e-24 3.770575604326259894e-25 -9.016582296168619108e-26 1.613398295715451971e-26 -8.638643768945878241e-28 -1.120358669887942449e-27 8.723524193385504650e-28 -4.145739296699411345e-28 1.218082923945674823e-28 -3.265986648100386807e-29 5.706230071661174210e-30 1.192170853462836529e-31 -8.502062835356063222e-31 5.988937027051995912e-30 -4.751694555555069187e-30 1.562962381995615630e-30 -1.728921169212075361e-30 1.839005816221005744e-31 7.453380729419579683e-32 -4.492013643371306697e-31 -3.932164338961929904e-29 4.075489643000669443e-29
2.772470677443488740e-01 2.701023479026631313e-01 2.629576280398890908e-01 2.558129086702218280e-01 2.486681903078557798e-01 2.415234734669860772e-01 2.343787581404757903e-01 2.272340413879355148e-01 2.200893230836283854e-01 2.129446037791606905e-01 2.057998837929840008e-01 1.986551645157495494e-01 1.915104429841631706e-01 1.843657315046730860e-01 1.772210014404237421e-01 1.700762545198316600e-01 1.629321440495554996e-01 1.558070442299638036e-01 1.487396330827618074e-01 1.417683167301527769e-01 1.349104867276019748e-01 1.281747894637427498e-01 1.215699824871469964e-01 1.151039018251867191e-01 1.087836640009581801e-01 1.026156348692881803e-01 9.660543876589781920e-02 9.075799246035179402e-02 8.507754767210057301e-02 7.956774196510120467e-02 7.423165403658010808e-02 6.907186126407885429e-02 6.409049748350094389e-02 5.928930955034864697e-02 5.466971163679499451e-02 5.023283658571362637e-02 4.597958393388943549e-02 4.191066444358221288e-02 3.802664114939200563e-02 3.432796704636313645e-02 3.081501962546481441e-02 2.748813251349699338e-02 2.434762450415753343e-02 2.139382628204972506e-02 1.862710514685636531e-02 1.604788804456881018e-02 1.365668813934807491e-02 1.145412472720424776e-02 9.440926566868483236e-03 7.617960833422783920e-03 5.986260496442605099e-03 4.547019602530644536e-03 3.301678672264215381e-03 2.251816933699245758e-03 1.399252235786488992e-03 7.469161886327681807e-04 2.932416752224513228e-04 5.567027015102454389e-05 -7.535685459738468305e-06 1.254764438635241040e-06 8.844491745829340863e-08 -1.690387390190060052e-07 8.812052017205729098e-08 -3.223645877514198408e-08 8.405647541980729083e-09 -1.784794512262832003e-09 2.604581557260923685e-10 7.306535401884526104e-11 -6.553271278391389069e-11 2.839553600133422143e-11 -9.902011379626603442e-12 2.625003189322825811e-12 -5.674742897832485659e-13 5.258839785027049365e-14 4.138342002459766028e-14 -2.586204993472660039e-14 9.945616648451981851e-15 -3.076589669020660568e-15 7.029619126293459124e-16 -1.313189717852078283e-16 3.571631133030033506e-19 1.333044253691858522e-17 -6.559821063105878076e-18 2.498776881032388208e-18 -8.920743263522245252e-19 2.396835873225146299e-19 -3.701912942194773570e-20 -4.198189893567289873e-21 5.872149986930624544e-21 -2.934304283967062018e-21 1.198537163568256141e-21 -3.703140128430959776e-22 8.110625053779455105e-23 -1.041876331399178094e-23 -3.745165873840833100e-24 3.014177956941337165e-24 -1.252279651220114032e-24 4.290735270991855232e-25 -1.267050209110083436e-25 2.696782245209521941e-26 -1.649383712407765739e-27 -1.930131187019458798e-27 1.152674451443170480e-27 -3.109708884336858585e-28 -6.043799432629624684e-31 -1.419978416130300813e-29 8.617546142920371351e-30 5.288600124249194081e-31 7.186974959276898948e-30 1.887795908972653798e-29 -2.217104879983717432e-29 7.217667038943822398e-30 -1.708933363238348194e-30 -1.150245849804528517e-29 -3.396081586952787062e-29 1.542271648006114983e-28 -1.044172658931831710e-28 3.451465280408928362e-28
2.803919137966155994e-01 2.732471953047566626e-01 2.661024758626636122e-01 2.589577559829658315e-01 2.518130361782917603e-01 2.446683169612698105e-01 2.375235988446046664e-01 2.303788823405693298e-01 2.232341669515217897e-01 2.160894498812570008e-01 2.089447312486730768e-01 2.018000123295203563e-01 1.946552898743699467e-01 1.875105808066845348e-01 1.803658224765554707e-01 1.732212197535388798e-01 1.660763245943633337e-01 1.589451414498122550e-01 1.518549153424671172e-01 1.448396725418678588e-01 1.379227835595248086e-01 1.311145772856366909e-01 1.244257665248315325e-01 1.178659726237558242e-01 1.114440031646161400e-01 1.051678018013497140e-01 9.904446589390548950e-02 9.308025445849525681e-02 8.728062759754541544e-02 8.165029879568283522e-02 7.619329518038756022e-02 7.091302261639871596e-02 6.581233269751556036e-02 6.089358945332446621e-02 5.615873413805531900e-02 5.160934698806713544e-02 4.724670525512985469e-02 4.307183715768821142e-02 3.908557164499699976e-02 3.528858405184388813e-02 3.168143784749856418e-02 2.826462276455744480e-02 2.503858964295642073e-02 2.200378235117203193e-02 1.916066715804354281e-02 1.650975993041521248e-02 1.405165768689253976e-02 1.178705885538204601e-02 9.716771948899156214e-03 7.841747124726744164e-03 6.163106427654328409e-03 4.682140723803063925e-03 3.400400357345055059e-03 2.319585315748781598e-03 1.441651549911626608e-03 7.696938009030161124e-04 3.024182357600054211e-04 5.671826494485646071e-05 -7.014446191266480458e-06 1.297500534070040410e-06 1.219920516471726889e-07 -2.232352373042267454e-07 1.030197252255370412e-07 -3.552755025766484280e-08 1.082968573059735702e-08 -2.137567549241877116e-09 2.074097723665546536e-10 5.470236294107343322e-11 -5.055710157759200521e-11 2.221976675008919140e-11 -7.600569169533234138e-12 2.593342740726121013e-12 -5.484824485236448743e-13 3.746094251338562180e-14 3.493116982619634781e-14 -2.451891021702147879e-14 9.348942707203892304e-15 -2.514135464658358831e-15 6.888363983924105594e-16 -1.549949164907345697e-16 3.949767684330005832e-19 1.796565150398034372e-17 -1.021105871899755614e-17 3.625144511308307126e-18 -1.019383941561026460e-18 2.555578023942629469e-19 -4.152849948489336592e-20 -5.035780154693106072e-21 7.067882976135449558e-21 -3.044934873413633442e-21 9.294848941409812866e-22 -2.952181018188462194e-22 8.996851189646208377e-23 -9.579666637790075863e-24 -3.332276461747302049e-24 3.008445187733666564e-24 -1.465060477760973896e-24 5.025698214036734228e-25 -1.218530908172918440e-25 2.482798904058491931e-26 -1.461668361030496401e-27 -1.099372373214555374e-27 7.735645650657195021e-28 -6.881111782449905145e-28 4.091832027185949969e-28 -1.221513478385798455e-28 -5.163322066377055685e-28 -2.853198009316992381e-28 6.934148170232869925e-28 1.891302287642764324e-28 -1.952208499120778932e-28 -1.180143745391437409e-27 2.039983613997926882e-27 -3.590402105798642718e-28 2.360051931082499687e-28 7.692475629410883439e-27 -7.760075505635699177e-27 3.020650873025796936e-27
2.836554283150883315e-01 2.765107128463010766e-01 2.693659956134247246e-01 2.622212769829215251e-01 2.550765574658649948e-01 2.479318375733286506e-01 2.407871178164978643e-01 2.336423987056242824e-01 2.264976807550712901e-01 2.193529644680414781e-01 2.122082489387872029e-01 2.050635319396058864e-01 1.979188113823989181e-01 1.907741018575056513e-01 1.836293357594070974e-01 1.764848050668726687e-01 1.693394161341557069e-01 1.622040953808659980e-01 1.550967328966678660e-01 1.480418363870283083e-01 1.410679705041469889e-01 1.341878443971541157e-01 1.274141893032698369e-01 1.207585369486475768e-01 1.142316065397541158e-01 1.078431106753962726e-01 1.016017672841358910e-01 9.551534316140503078e-02 8.959066005484030148e-02 8.383364511744095804e-02 7.824939475260539457e-02 7.284224696718662184e-02 6.761585811856796191e-02 6.257328087501104474e-02 5.771704095080179564e-02 5.304921089312809174e-02 4.857147979248346847e-02 4.428521827114274834e-02 4.019153847463630136e-02 3.629134906327231846e-02 3.258540539106950101e-02 2.907435518551311146e-02 2.575878011938997555e-02 2.263923370931294338e-02 1.971627599539050799e-02 1.699050546122837790e-02 1.446259629909400941e-02 1.213331849914423000e-02 1.000355333912803998e-02 8.074327249171713711e-03 6.346845205081563107e-03 4.822489797487236954e-03 3.502916488240206527e-03 2.389943860709292742e-03 1.485665353449248114e-03 7.933322347829841782e-04 3.118693935729627861e-04 5.836497084369018153e-05 -7.067625742643376042e-06 1.143280316022982001e-06 7.871456376321967579e-08 -1.501849114955715937e-07 7.944011273395865249e-08 -2.990208346490404067e-08 8.146836007668464651e-09 -1.968073183880668946e-09 2.555856703286235943e-10 7.231837123777779623e-11 -7.019163189089804760e-11 3.271874476031301515e-11 -1.105156451211815234e-11 2.776421937419298096e-12 -5.683526450319212439e-13 3.905001253461988896e-14 3.201223650058001347e-14 -2.426736680233279217e-14 1.222364946310763849e-14 -4.418005476178152919e-15 1.029273943964982878e-15 -1.490464142529971940e-16 3.833556417863035271e-19 1.665037558941158505e-17 -9.122486724926079729e-18 3.401935132868408715e-18 -1.153875872495158924e-18 2.825427393270934465e-19 -3.911301629927768462e-20 -4.794577002876481251e-21 7.536637545045907314e-21 -4.002632944986888324e-21 1.487356688854143022e-21 -3.877281382083661313e-22 7.790698278974415905e-23 -8.991602112420892438e-24 -3.745980680286157726e-24 3.186039547987131470e-24 -1.296613098340789060e-24 4.174522941254574537e-25 -1.283826656549523386e-25 2.693723628767427089e-26 -2.643896946902500504e-27 -8.891019690412066525e-28 9.607199556030615367e-28 -9.956790792500890866e-28 -1.608041360737240736e-25 2.342287829516606920e-25 -2.589077232971155088e-26 3.989960983031885694e-28 -2.069511378480392491e-27 3.984384951866935507e-28 1.627765312449079266e-26 -2.197562100066097975e-26 6.298520264530828141e-27 -3.344467649703008282e-27 -2.305916687585097193e-26 2.697111519014334268e-26 -1.543181351690600047e-25 1.373213149729533290e-25
2.870376178310518056e-01 2.798928999024569153e-01 2.727481836465596166e-01 2.656034681132379283e-01 2.584587507947160856e-01 2.513140321085438611e-01 2.441693125643375484e-01 2.370245926709134976e-01 2.298798729424638976e-01 2.227351538645626905e-01 2.155904360289082611e-01 2.084457197824371166e-01 2.013010037288671950e-01 1.941562915192933669e-01 1.870115395000080949e-01 1.798669942004883782e-01 1.727214819251864097e-01 1.655831133819657131e-01 1.584639837284553820e-01 1.513752262263015624e-01 1.443472617414071346e-01 1.373965658663756084e-01 1.305378089187577417e-01 1.237846126559130899e-01 1.171497611805530914e-01 1.106449483666369776e-01 1.042807525790348244e-01 9.806660096677968785e-02 9.201084735411983739e-02 8.612078960928007398e-02 8.040273154924625076e-02 7.486206183791503654e-02 6.950334088642680375e-02 6.433039123501183010e-02 5.934638788399089482e-02 5.455394600872773281e-02 4.995520432028702218e-02 4.555190301641369455e-02 4.134545579935214321e-02 3.733701583271624436e-02 3.352753578950443125e-02 2.991782233077650358e-02 2.650858547170545365e-02 2.330048335811172808e-02 2.029416300800241865e-02 1.749029759286983496e-02 1.488963018703227427e-02 1.249299314371125902e-02 1.030133204122017122e-02 8.315741528909821947e-03 6.537501857709382934e-03 4.968081792523046381e-03 3.609234327880577516e-03 2.462896263415013769e-03 1.531301081438098989e-03 8.177946165066970899e-04 3.218176143414584679e-04 5.934957319735625545e-05 -6.165428746548591228e-06 7.928025648722902409e-07 6.593922000767505457e-08 -1.357989793000894933e-07 7.315452805047561053e-08 -2.809021098388955560e-08 9.223202855178286536e-09 -2.147536791395599463e-09 2.836302091306330071e-10 8.867363373435877214e-11 -8.412864176270807013e-11 3.580781365896403347e-11 -1.132673380444429877e-11 3.162885219503740396e-12 -7.022806880148721760e-13 5.603447855518826757e-14 4.785923910720055077e-14 -3.125715999405052235e-14 1.195304386772532112e-14 -3.720331616160973648e-15 1.010231695907645746e-15 -2.169592189992501156e-16 4.804743459046301018e-19 1.943119690884879430e-17 -1.088232468386776203e-17 4.349279118384420647e-18 -1.297681974581057520e-18 3.276141491043514218e-19 -5.918630667453756752e-20 -6.828830642078321888e-21 9.448332456281577099e-21 -4.113435566681284900e-21 1.298282713775203057e-21 -3.829172134832252394e-22 8.933568482954252082e-23 -1.015114832449861965e-23 -3.627939717734599038e-24 3.005407017021228275e-24 -1.300654029032408013e-24 4.385399426785546361e-25 -1.388413517034074114e-25 6.139750513501563496e-26 -2.096832766581370274e-27 -3.039548181991024845e-27 9.504318780077909669e-26 1.440711408492823425e-24 -1.742796043614172956e-24 3.715704085080112928e-25 3.544163926179724364e-28 1.252501801253182928e-27 -5.135519663743535070e-27 -1.374037653345718083e-25 1.377580185069540846e-25 -5.910474297313964052e-25 1.037306126567362889e-24 -3.992508509581470930e-25 -1.366750586561561740e-25 -4.030799783234586256e-26 1.696656339535029910e-23 -1.910055431312279597e-23
2.905384852715148791e-01 2.833937655236894448e-01 2.762490464184758077e-01 2.691043284638810484e-01 2.619596121679114709e-01 2.548148966475264343e-01 2.476701793552832376e-01 2.405254606900857350e-01 2.333807411636452112e-01 2.262360212582937014e-01 2.190913016025506643e-01 2.119465822510950004e-01 2.048018651154007164e-01 1.976571479102540163e-01 1.905124244817026635e-01 1.833677932000871147e-01 1.762225202046405204e-01 1.690815731881107342e-01 1.619552076448988742e-01 1.548399055773393429e-01 1.477616166013706045e-01 1.407425891550447838e-01 1.337991540083984243e-01 1.269472418560638194e-01 1.202018794082504866e-01 1.135769338672469042e-01 1.070850529281977270e-01 1.007375986477868635e-01 9.454462351450167168e-02 8.851496614948282937e-02 8.265629599581418574e-02 7.697518821622394147e-02 7.147722091011521339e-02 6.616707911835378875e-02 6.104866061390279430e-02 5.612517976295788857e-02 5.139926687508065972e-02 4.687306141283618943e-02 4.254829818339794095e-02 3.842638619987915477e-02 3.450848030344078055e-02 3.079554590927530491e-02 2.728841741086203074e-02 2.398785087472059610e-02 2.089457170480968004e-02 1.800931814675202705e-02 1.533289169461607600e-02 1.286617645451549122e-02 1.061017214056920489e-02 8.566031933303056359e-03 6.735102873753540630e-03 5.118931016338768188e-03 3.719364088020084020e-03 2.538446336902755018e-03 1.578533137131892016e-03 8.432605898861175731e-04 3.314530964369476738e-04 6.285441768688897375e-05 -8.477236549791162059e-06 1.409047315631108985e-06 1.058953730288593781e-07 -2.198649010745048612e-07 1.175931409610277707e-07 -4.097004532760783964e-08 1.102615571309733688e-08 -2.464228882992963057e-09 3.366520408156357144e-10 8.759091798565328070e-11 -8.218227447358415388e-11 4.053813448340589947e-11 -1.545429277708424913e-11 3.788458344384552794e-12 -7.967539244029924466e-13 6.116265730417309890e-14 5.537908336380010150e-14 -3.752834480403917004e-14 1.431301158741490591e-14 -4.103634630315116740e-15 9.139206370988340083e-16 -1.520622293503911318e-16 4.323001628231578047e-19 2.053050101406221116e-17 -1.212140383226349851e-17 4.535040639536160159e-18 -1.387722431400597455e-18 3.167680098337737831e-19 -3.771393451937924176e-20 -3.724294449881060601e-21 5.074726783820860918e-21 -2.519660635718516726e-21 1.021902635026331883e-21 -3.228093595082513458e-22 7.715248923660687463e-23 -8.965983209013268998e-24 -3.088627035807266350e-24 2.464059412419612528e-24 -1.435639706520254324e-25 -9.201881804881530313e-25 4.111328675011372962e-25 1.736644939219605399e-25 -1.662885886764338532e-26 -4.363007698911240250e-25 -1.105423584327025788e-23 1.039667014026163077e-23 -2.870152175721443983e-24 -1.687164375230333145e-24 4.225084723874158870e-24 8.402376696705206581e-26 9.337256740357755931e-25 -9.600696810049481910e-25 6.330357841274592309e-24 -7.317767702832151037e-24 2.841138326286467590e-24 -3.077799369295437360e-24 -1.097360762082310499e-24 -9.464914706350076317e-23 7.184638955036832088e-23 1.657581453505057571e-23
2.941580266945769684e-01 2.870133072452203948e-01 2.798685873798898438e-01 2.727238676050836030e-01 2.655791484272996827e-01 2.584344303530355380e-01 2.512897138887889015e-01 2.441449984432854381e-01 2.370002812911662649e-01 2.298555627130037526e-01 2.227108433119010245e-01 2.155661231232381403e-01 2.084214046572156476e-01 2.012766808550876252e-01 1.941319762578069263e-01 1.869872401228012959e-01 1.798424133580238393e-01 1.726991154384884819e-01 1.655688215996079793e-01 1.584352474916536635e-01 1.513117324052022650e-01 1.442275822499806681e-01 1.372006853258449233e-01 1.302495020666491476e-01 1.233914649506409056e-01 1.166428393405142261e-01 1.100185693366561163e-01 1.035321651149414268e-01 9.719567002294136893e-02 9.101965098244686747e-02 8.501330727484909811e-02 7.918455664911977498e-02 7.354012532011093561e-02 6.808566678911935621e-02 6.282588518992959781e-02 5.776465788812837343e-02 5.290515359849199545e-02 4.824994359721173492e-02 4.380110465576543544e-02 3.956031311981877269e-02 3.552893012861862987e-02 3.170807835804319297e-02 2.809871091536786034e-02 2.470167315396045934e-02 2.151775824341577853e-02 1.854775794033789588e-02 1.579251949092487853e-02 1.325296639636333075e-02 1.093014052656242178e-02 8.825242327038735138e-03 6.939675327847895717e-03 5.275054049108955125e-03 3.833312482200794662e-03 2.616598089476699415e-03 1.627391866082604889e-03 8.695070678329338719e-04 3.419254403993111794e-04 6.418763914542781367e-05 -7.936398499378611554e-06 1.441844266010180028e-06 1.125747879968696962e-07 -1.879384030931688906e-07 8.132726670308619257e-08 -2.944371167873164581e-08 1.009963693771676861e-08 -2.211548558870580904e-09 2.532122209377165115e-10 8.239199479673542886e-11 -8.126728717379541453e-11 3.581577557081660570e-11 -1.176961611590867021e-11 3.610983371709242836e-12 -7.148142072799304014e-13 4.869597038676291071e-14 4.295819065748372450e-14 -2.961043881127132293e-14 1.235923767195584539e-14 -4.260100754010884194e-15 1.219642355112471848e-15 -2.334599705629334165e-16 6.251816636866730306e-19 2.354675033470139456e-17 -1.212073669834353819e-17 4.599831259979147971e-18 -1.314448163944394183e-18 2.966632443279628929e-19 -5.264416675967271807e-20 -6.807954968805039412e-21 1.078423297625678457e-20 -5.441356923968041751e-21 1.802077979031930779e-21 -4.265838940368238185e-22 7.497570768616399877e-23 -8.113836102869083867e-24 -3.319928168929504426e-24 -1.505910621669508356e-24 5.889428962258384970e-23 -5.333485159134283123e-23 3.275442309509707681e-26 5.443538177973631947e-24 4.308640489574912135e-25 6.154306425549707436e-23 -5.142793994825060669e-23 1.783829138418470777e-23 2.503375726137343260e-23 -4.626798867640898442e-23 4.891627846388076623e-24 -1.019531177319336242e-24 5.509607359986956138e-24 -4.797417449732605730e-23 4.029334653402356252e-23 1.241794423283230821e-22 1.225814134127553512e-22 -5.343513484606045857e-22 5.003058108364670748e-23 1.274322185775611647e-21 -1.039348789493303132e-21 1.894246725350162786e-22
2.978962373339550940e-01 2.907515204981692136e-01 2.836068021595202771e-01 2.764620828230168192e-01 2.693173629936673197e-01 2.621726431764795917e-01 2.550279238764615042e-01 2.478832055987315874e-01 2.407384888478996954e-01 2.335937734655004483e-01 2.264490566011752581e-01 2.193043380214097504e-01 2.121596197443388343e-01 2.050148948087707756e-01 1.978701962849478968e-01 1.907253989713039721e-01 1.835809158922116491e-01 1.764357845381413492e-01 1.693032908524055302e-01 1.621598158577526871e-01 1.549979513162434430e-01 1.478530028321175804e-01 1.407447545504427189e-01 1.336944722318675616e-01 1.267221212156734444e-01 1.198465948447360457e-01 1.130853898711239591e-01 1.064544247768535179e-01 9.996795940252013735e-02 9.363858143985852311e-02 8.747723223584781549e-02 8.149332512962455255e-02 7.569488457974493656e-02 7.008865415018779299e-02 6.468023974356983119e-02 5.947425396804782022e-02 5.447445632605196070e-02 4.968388571487911132e-02 4.510498318119979255e-02 4.073970398192434950e-02 3.658961880544427808e-02 3.265600455192076840e-02 2.893992541544917335e-02 2.544230520743305177e-02 2.216399195414233206e-02 1.910581715217012783e-02 1.626865877528744370e-02 1.365346535028776065e-02 1.126130698724452268e-02 9.093418348683221866e-03 7.151247603548932519e-03 5.436467244740391530e-03 3.951088635801626794e-03 2.697355637824932432e-03 1.677871071359997388e-03 8.966117824561937620e-04 3.527581602294858204e-04 6.602346615088036208e-05 -7.864466739784162338e-06 1.142738563801532987e-06 8.523042754333245046e-08 -1.813431015304935655e-07 9.990536781011427653e-08 -3.454833813127497399e-08 8.296744153531148124e-09 -1.978833973613903276e-09 3.003537242846328550e-10 7.778976874418334442e-11 -7.246488428563984059e-11 3.385509153354425486e-11 -1.187889290098826853e-11 3.098503860356919207e-12 -7.379507800058256929e-13 5.401562296210353760e-14 4.384447554322549888e-14 -3.102516123774535508e-14 1.418966806268753910e-14 -4.797341288833743043e-15 1.096581653668969845e-15 -1.556558693375421757e-16 3.115109173548786537e-19 1.364124205740971501e-17 -8.405609516447485021e-18 3.506503409989353328e-18 -1.006049871244755539e-18 2.618447619863635283e-19 -4.033258255855444254e-20 -4.974385692386221306e-21 6.565251222895366498e-21 -2.760381817807220872e-21 1.103733169840628293e-21 -5.156067646256939287e-22 -2.786483590694552428e-23 2.392303335300052787e-22 7.865403583334025923e-23 3.491279903996206638e-24 -3.010276332868077388e-23 1.586920258953578850e-23 -3.280485249205213165e-23 -8.898053039819925037e-23 1.339444834038421764e-22 1.901906390847111633e-22 -7.818708632772232004e-22 3.425049837707312124e-22 1.770327268270396609e-22 1.450661636841295212e-23 -9.372222185411084456e-23 -2.171313376323599283e-24 2.520076910310386881e-22 -5.216252145972212159e-22 -3.290775539452012835e-22 3.776911053931512752e-21 -5.099088077305763358e-21 9.465928236274609290e-22 4.349865619839418654e-22 -1.252810175302571706e-21 2.041852715859065166e-21 -2.471665852065084019e-21
3.017531181804327112e-01 2.946084009875608589e-01 2.874636855092743137e-01 2.803189690723861816e-01 2.731742510246951139e-01 2.660295318697399880e-01 2.588848121110598477e-01 2.517400922523397311e-01 2.445953727964793878e-01 2.374506542530228081e-01 2.303059371002924294e-01 2.231612216379747493e-01 2.160165055163235925e-01 2.088717845235686932e-01 2.017270818576176461e-01 1.945822821490942323e-01 1.874379042908501658e-01 1.802918996616105496e-01 1.731573212769915993e-01 1.660112413279307142e-01 1.588201592551937436e-01 1.516199104561762878e-01 1.444335915156373940e-01 1.372852071715640887e-01 1.301975256216396371e-01 1.231922950316265419e-01 1.162898221492685152e-01 1.095087269179906148e-01 1.028657734354430503e-01 9.637581289139451890e-02 9.005180709271609629e-02 8.390489900215185315e-02 7.794455047720588725e-02 7.217873434576876912e-02 6.661406756352042380e-02 6.125598007641417514e-02 5.610888101777455894e-02 5.117631644034051352e-02 4.646111558873970704e-02 4.196552425243041395e-02 3.769132485130102100e-02 3.363994366254850765e-02 2.981254607455076366e-02 2.621012102426834370e-02 2.283355590190098983e-02 1.968370570969151662e-02 1.676146149495987697e-02 1.406778024310507101e-02 1.160374426362989833e-02 9.370607536310538929e-03 7.369849027228977251e-03 5.603188077893861765e-03 4.072700937592398096e-03 2.780723219014970358e-03 1.729979348885019377e-03 9.245339476349394379e-04 3.640735645299576339e-04 6.727668904559781207e-05 -7.233363886816976548e-06 1.212119443201476443e-06 1.203195401415800289e-07 -2.207409452652160645e-07 1.066584749072663073e-07 -4.142586115733322190e-08 1.364688218573307356e-08 -2.671060454657800899e-09 3.017105895468611311e-10 9.462281366776557053e-11 -8.735718221074075085e-11 3.743377926571262131e-11 -1.288026747811761320e-11 3.400520849867421507e-12 -5.608568798417082578e-13 4.348354945393044387e-14 4.089191651914866002e-14 -2.637322243383080419e-14 9.162666740913534103e-15 -2.875899548878736512e-15 9.038552725374773239e-16 -2.028397053962251974e-16 5.666844896872390994e-19 2.150131296773018978e-17 -1.123702891825010027e-17 4.684664979188985296e-18 -1.710105708264534327e-18 4.299555779907557681e-19 -6.254921993902054435e-20 -7.634496313603055480e-21 1.553370493302562472e-20 -8.641545962190478397e-21 2.496794722726591905e-21 1.876828484641935736e-21 -4.300714636931018607e-21 7.507256699389659676e-22 -1.317533982417884912e-22 4.389951419932576314e-21 -4.023532425216311017e-21 1.671248186595580972e-20 -1.807695479461034918e-20 -2.438830745405183132e-21 1.648514786589492696e-22 5.883023259352323649e-22 -2.011767218510488472e-21 1.014867648198216645e-20 -9.951074019581214169e-21 8.807695955795634323e-21 -1.312058635085571269e-20 -3.449016913826161368e-22 -2.880654377838600709e-21 -4.016665831593723116e-21 -1.237272754149286463e-20 3.570199533924877558e-19 -5.363850891911166869e-19 8.372529245826082454e-20 1.055677201776275234e-19 -1.350076567860215457e-19 4.974041086783186656e-20 1.301556073171369656e-20
3.057286788406046729e-01 2.985839592031063749e-01 2.914392403069617221e-01 2.842945226542640258e-01 2.771498067471072080e-01 2.700050908676078776e-01 2.628603732357057132e-01 2.557156543534659376e-01 2.485709347225442956e-01 2.414262148521931495e-01 2.342814951979471649e-01 2.271367764472620732e-01 2.199920585603745427e-01 2.128473428915244048e-01 2.057026313137038931e-01 1.985578739033148354e-01 1.914133960553542346e-01 1.842674672403539493e-01 1.771300460793629739e-01 1.699863071257910752e-01 1.627777143500623580e-01 1.555288974225019216e-01 1.482691168017402639e-01 1.410247212749328460e-01 1.338214227873416318e-01 1.266841836301372815e-01 1.196364017086623960e-01 1.126996949968430001e-01 1.058936575060457908e-01 9.923571286319822493e-02 9.274110218858930277e-02 8.642295561556118111e-02 8.029241625547146877e-02 7.435881123621516930e-02 6.862989172687052053e-02 6.311199865496280870e-02 5.781025714149241185e-02 5.272876420702641426e-02 4.787076301277957968e-02 4.323880147717885924e-02 3.883487463929911898e-02 3.466055118143086811e-02 3.071708517707347902e-02 2.700551449867964401e-02 2.352674748877688418e-02 2.028164367073022681e-02 1.727108657708843406e-02 1.449602267741110714e-02 1.195752815588431266e-02 9.656859215258864829e-03 7.595510470067748376e-03 5.775233346874090491e-03 4.198160818417935244e-03 2.866705343835998510e-03 1.783690544819396297e-03 9.534675661346919120e-04 3.750535969057648081e-04 7.111134662429388761e-05 -9.422676251658206373e-06 1.397094564746314070e-06 9.138182453151755592e-08 -1.733241896628719122e-07 9.292959139802825729e-08 -3.573251234990589230e-08 9.908486815562663507e-09 -2.582421091219650472e-09 3.119487843484884668e-10 7.381693176753576166e-11 -6.682169101026500965e-11 3.199147195413312013e-11 -1.201296686520023141e-11 3.476983069831490131e-12 -8.367098904508432548e-13 5.529212529955184760e-14 4.501808681269692847e-14 -3.184951581923368164e-14 1.433178383475519639e-14 -4.832502595173194274e-15 1.299554185277355626e-15 -2.066565462709427238e-16 5.379150503607556194e-19 2.569690373750855713e-17 -1.478826892976308967e-17 5.128608930822963021e-18 -1.485589535428231610e-18 3.928874527379403517e-19 -4.962160168209348706e-20 -4.015285151060860670e-21 -7.387633474796196737e-20 7.156466760086390481e-20 -4.745035847379987544e-20 4.342586688717906802e-20 -2.276529404595733582e-20 3.752568841693073995e-21 -8.566073494532644827e-21 1.268726938219192779e-20 -1.241419770405669313e-19 1.426486562011798175e-19 -5.125791935866069800e-20 1.208416699501932437e-20 -3.436561475904414990e-21 -1.582121603882011257e-19 1.070388379396073832e-19 -1.652818912053861310e-20 -4.197657375322313835e-20 7.850469715297906971e-20 -2.291922011103159194e-20 2.669660265239647080e-21 7.382368851057063622e-20 -1.776765891502106506e-19 -2.805371883286820271e-18 3.784904281507315277e-18 -1.795076841207823967e-18 1.414407609051684682e-18 2.407385297468413512e-19 -8.621565022590209503e-19 4.765113373962371532e-19 -3.513893196992448127e-20
3.098229141876605031e-01 3.026781947945038631e-01 2.955334749590931565e-01 2.883887551821000539e-01 2.812440359641962262e-01 2.740993178060537327e-01 2.669546012083443554e-01 2.598098857716984456e-01 2.526651687091853171e-01 2.455204502230562413e-01 2.383757307796955660e-01 2.312310110682753439e-01 2.240862907798588932e-01 2.169415734580047717e-01 2.097968498785780511e-01 2.026521420812759655e-01 1.955074648885962996e-01 1.883622519996440148e-01 1.812211595285426469e-01 1.740822034282947517e-01 1.668691363419510798e-01 1.595799916428436160e-01 1.522528896935297082e-01 1.449157930197293720e-01 1.375976101505288485e-01 1.303266663825836391e-01 1.231298875843488128e-01 1.160322395271780466e-01 1.090564766802325919e-01 1.022229485967869889e-01 9.554949818651291282e-02 8.905150999276502388e-02 8.274204364378781595e-02 7.663201901398784821e-02 7.073043150890531705e-02 6.504463580492213237e-02 5.958054813793969146e-02 5.434286523815969744e-02 4.933527190979996452e-02 4.456062968648824563e-02 4.002114555028456200e-02 3.571852112368239379e-02 3.165408363227997096e-02 2.782890043004863576e-02 2.424387910049447675e-02 2.089986163095140098e-02 1.779770017444480198e-02 1.493830908059793142e-02 1.232273755877722962e-02 9.952224754986353783e-03 7.828263484592755048e-03 5.952622080324715056e-03 4.327476377903926273e-03 2.955306497922245961e-03 1.839034838411751941e-03 9.831822103290891943e-04 3.868916467053032881e-04 7.265456879376355314e-05 -8.854329143352450857e-06 1.461837268202948044e-06 1.311593986506414808e-07 -2.439546864186397498e-07 1.194818980836753786e-07 -4.265693384316963451e-08 1.103966362506917114e-08 -2.019154366024085898e-09 2.655894269651790787e-10 9.982035564255210544e-11 -9.619480745694078274e-11 3.976864682741105576e-11 -1.231629168222721593e-11 3.047351714425538449e-12 -5.761589875097335710e-13 4.866353628306954475e-14 4.747244815514093834e-14 -3.346908180099290096e-14 1.296738311006602917e-14 -3.875666272753164008e-15 1.028362381107655745e-15 -2.022847359736272564e-16 4.969075212903039160e-19 1.849472177614663800e-17 -9.536563336677810274e-18 4.187988957648057456e-18 -1.655938877459371399e-18 3.247528886169798966e-19 5.560608655223663419e-20 1.673516435216399115e-19 -2.678953455668723762e-19 1.293985292220051628e-19 5.359844623781450404e-19 -4.290788598102086348e-19 -3.702619842724432804e-19 2.329135001530574420e-20 -3.471788009100886778e-21 1.004014666941679939e-18 -5.116286814052661289e-19 6.692148335541716474e-19 -1.064908675080358323e-18 4.030925253204207745e-19 -3.024114393759306138e-19 -4.458509796108031152e-19 7.194622949580956311e-19 -6.059999657798273319e-19 1.920172031428904281e-18 -2.548861110263432218e-18 2.087036021805777736e-19 -1.117515805187488025e-19 1.714154799573765559e-18 1.922751767351848593e-17 -2.225148857284263563e-17 2.231577602634427695e-17 -2.330686045013910549e-17 2.326231637844828527e-18 1.003652810580948827e-18 -2.132874353545763286e-18 4.108823661083068911e-18 -3.175267657219128346e-18
3.140358174712972184e-01 3.068911012304846309e-01 2.997463833362798979e-01 2.926016642879603613e-01 2.854569445848034182e-01 2.783122247260866877e-01 2.711675052110874007e-01 2.640227865390820661e-01 2.568780692094378981e-01 2.497333536271456045e-01 2.425886373148407327e-01 2.354439194427102588e-01 2.282991999791617876e-01 2.211544821364150593e-01 2.140097541931026970e-01 2.068650656361926410e-01 1.997202464723234761e-01 1.925757618041780139e-01 1.854311309923258322e-01 1.782966613219464092e-01 1.710913726185182004e-01 1.637726436283095666e-01 1.563860137081716783e-01 1.489609340144145422e-01 1.415297475498774049e-01 1.341243002158107600e-01 1.267752934715539737e-01 1.195115651573459975e-01 1.123594351596898244e-01 1.053425416927644270e-01 9.848170235315457932e-02 9.179488294561340134e-02 8.529732447982565913e-02 7.900175070333985416e-02 7.291862083320263532e-02 6.705639619520693817e-02 6.142186311802601273e-02 5.602037248533038583e-02 5.085608072347411190e-02 4.593217424998111836e-02 4.125106942853178776e-02 3.681458843114803620e-02 3.262411260546213554e-02 2.868071560188545713e-02 2.498527883620012963e-02 2.153860115915085319e-02 1.834147592738763835e-02 1.539476085272457710e-02 1.269945456706563468e-02 1.025675749009417707e-02 8.068140877512029741e-03 6.135373527835184804e-03 4.460657297488092136e-03 3.046531342412582988e-03 1.896015664651090485e-03 1.013699709578792275e-03 3.993443661544447535e-04 7.388297099992614336e-05 -7.980729902514392029e-06 1.309114860677530645e-06 1.103279861086375433e-07 -2.010422257230767992e-07 9.491579346649741806e-08 -3.353066249507678402e-08 1.068378537493462683e-08 -3.179119835642884635e-09 3.579639377030901454e-10 9.447966756843907405e-11 -9.385935152393908835e-11 4.779963184173300652e-11 -1.813861885240617213e-11 4.936152270674558502e-12 -8.568378790098318288e-13 6.488917968421702112e-14 4.945907180134090706e-14 -3.200752298310961568e-14 1.308527270483506736e-14 -3.956713600271167483e-15 9.431864840950758539e-16 -1.776133428647106165e-16 4.708062867432694061e-19 2.168565254489257438e-17 -1.566366916285308219e-17 6.620018881397037989e-18 -1.292607852794998765e-18 -1.297494748550917687e-18 3.603973244706957303e-18 4.374186161017825878e-19 -4.495932484554250055e-19 -1.016383403719204314e-18 1.728024251745487909e-18 -8.269491797713755124e-19 -4.859359167827173078e-19 4.097961340184963873e-19 -1.185674849221929701e-18 3.579059242920776051e-18 -5.824178726369614729e-18 4.637977860487393824e-18 -5.650297025492493719e-18 7.786858650789406936e-18 -6.581465382246464283e-19 7.842696899705457917e-20 -2.592834785661740822e-17 1.675123955272829092e-17 3.553877334446646196e-18 3.297560559181423349e-18 -1.320431342717549074e-17 -1.108926441413719820e-18 -8.951630249531702415e-17 9.591936234969619199e-17 -1.227307082942850095e-16 1.176026543629911391e-16 -3.013957350230210497e-17 -3.216055303378005505e-18 -6.286475000264450497e-18 -8.913975755151181205e-18 1.586977459999233158e-17 -2.097038142184640026e-17
3.183673928954904864e-01 3.112226747922364201e-01 3.040779582617287868e-01 2.969332427840168931e-01 2.897885256455979830e-01 2.826438071089463211e-01 2.754990876719685677e-01 2.683543678325711057e-01 2.612096480888478900e-01 2.540649289382425069e-01 2.469202108857578848e-01 2.397754944025986545e-01 2.326307788365766238e-01 2.254860624043438511e-01 2.183413388096025753e-01 2.111966458401249858e-01 2.040518045983953088e-01 1.969075786539320194e-01 1.897611172934252355e-01 1.826281495520098719e-01 1.754397743009851185e-01 1.681056373951908267e-01 1.606690229950852866e-01 1.531622993931177623e-01 1.456213460327644427e-01 1.380816121509118866e-01 1.305778899150446537e-01 1.231432157842913266e-01 1.158080945827978658e-01 1.085998951657555084e-01 1.015427996953313372e-01 9.465773634884637466e-02 8.796244764705216101e-02 8.147171245337578305e-02 7.519763726023810657e-02 6.914997982672305143e-02 6.333646996835577692e-02 5.776316559870819933e-02 5.243472728204411765e-02 4.735467723613561580e-02 4.252563637564944071e-02 3.794953159593288800e-02 3.362777528873753946e-02 2.956141994667672510e-02 2.575129180870473072e-02 2.219811526246250749e-02 1.890259524243078498e-02 1.586550452392654353e-02 1.308776457870344627e-02 1.057051269036537663e-02 8.315176997770051120e-03 6.323506462690303177e-03 4.597715948070089063e-03 3.140384936227278399e-03 1.954604073211884882e-03 1.045236260922372418e-03 4.113002386884403463e-04 7.811484036379030588e-05 -1.051922373345432859e-05 1.711129426068878422e-06 1.305909308221701666e-07 -2.618586450412209627e-07 1.399323999413133557e-07 -5.121273133667906650e-08 1.374721449220891435e-08 -2.854045750724534088e-09 3.748471316663160925e-10 9.960463788332161139e-11 -8.212701540502127807e-11 3.003847722508915726e-11 -8.510440668785979950e-12 2.247481622508956653e-12 -5.604982479776917175e-13 5.032165739239380808e-14 4.307507285053542822e-14 -2.836288131284404754e-14 1.120853082997671418e-14 -3.742085360019570139e-15 1.023444782349700351e-15 -1.462271690674864673e-16 -1.312531286756911977e-20 9.945449656087578563e-18 -3.074813034398683265e-17 1.750943908670474484e-17 3.682774282064042064e-17 -5.361837941105998938e-17 4.821669793221704463e-18 4.288745965854392250e-18 4.439704847766015613e-18 -1.883598887463957877e-17 2.752214903120747460e-17 -3.267942993839966959e-17 1.520605826426213243e-17 1.594574869459315283e-17 5.960860246637989597e-17 -5.285373695090545095e-17 1.522390040347617995e-17 2.517278090818299151e-17 -4.984436449382256502e-17 2.912250412103080262e-17 -4.875107850254704684e-18 5.871795417049920604e-17 -1.313847969197262451e-16 1.029768246036744113e-16 -2.357262026544597836e-16 3.563967455911438424e-16 -7.536862646562953821e-17 3.651353315693518417e-17 -4.121680968876960729e-16 8.779134554052630611e-17 1.303143755372820027e-15 -1.449482227423934709e-15 2.143822040938082301e-16 -3.080629792317616766e-18 3.324031145877351588e-17 -5.598157025327761134e-17 7.497552850775416891e-17 -6.790727653275105719e-17
3.228176484548492819e-01 3.156729285983684852e-01 3.085282090366892604e-01 3.013834902663921622e-01 2.942387727840576339e-01 2.870940570592322438e-01 2.799493409254850684e-01 2.728046231166351698e-01 2.656599041293678520e-01 2.585151844599588578e-01 2.513704646151259103e-01 2.442257450239007366e-01 2.370810264452223315e-01 2.299363086407175960e-01 2.227915930208310136e-01 2.156468839395431769e-01 2.085021062541120573e-01 2.013577390329353012e-01 1.942112907675103695e-01 1.870760948505831578e-01 1.799081768613337295e-01 1.725768948157389848e-01 1.651016008469544383e-01 1.575216225893075195e-01 1.498756903590127143e-01 1.422031095265586520e-01 1.345430321119840400e-01 1.269331026672816942e-01 1.194084268390718795e-01 1.120008219472917038e-01 1.047382867467642892e-01 9.764512133366830271e-02 9.074194526923644311e-02 8.404589365121505062e-02 7.757094686384947979e-02 7.132831072008789797e-02 6.532681007216931124e-02 5.957326207387050876e-02 5.407285702549261691e-02 4.882946333984280324e-02 4.384589892237927139e-02 3.912417552839366625e-02 3.466570882555555788e-02 3.047149780453024120e-02 2.654228016118644756e-02 2.287866888357194955e-02 1.948124758761737504e-02 1.635067192992628246e-02 1.348775634211267158e-02 1.089354783494648170e-02 8.569406823087164296e-03 6.517042288638527810e-03 4.738660615097293853e-03 3.236872012723668920e-03 2.014843044636431806e-03 1.077488645635743579e-03 4.244883595972705724e-04 7.862055790739368036e-05 -8.330586675091931412e-06 1.211103892880032155e-06 9.974884913228512922e-08 -1.991146854023958547e-07 1.051939072164191835e-07 -3.879374655882436370e-08 1.087852388833506404e-08 -2.341159223585684076e-09 2.310299705453501981e-10 6.221663592516377066e-11 -6.786775597615470061e-11 3.848613323930706527e-11 -1.506586311778438555e-11 3.645040183998106737e-12 -6.739634464736040025e-13 4.687033884846890982e-14 4.782377761517403601e-14 -3.735343708176040260e-14 1.624916513406571714e-14 -4.939316719263120848e-15 1.186973181310257394e-15 -8.411385821865373489e-17 -2.489919768049207158e-19 -1.531797494313954647e-17 -4.405270200886086045e-17 -1.286941457664086369e-16 2.454040453607885577e-16 -9.383052497710119694e-17 -4.106076360268068655e-18 4.435982907670470520e-17 -3.430817375812423104e-17 -3.870401595176449793e-16 2.903113804096123036e-16 -3.176587357042334600e-17 -2.174348472119751895e-18 1.630005557268485837e-16 1.074235266032596756e-16 -2.171101835674358270e-16 4.207133159139433624e-16 -2.357417720037345436e-16 -5.703126158484841115e-16 8.289316499233237460e-16 3.286562274267416567e-17 1.642177125943023572e-16 1.260356235937344910e-16 -4.198302863588612844e-16 -5.421915580416460539e-16 1.862758944790639977e-15 -1.064199293324070870e-15 1.457608502575680364e-16 -2.311351696855547645e-15 -1.707589504393780802e-15 3.290885905248951154e-15 -2.757807176954202774e-15 2.312747331901017568e-15 1.994726898758671271e-17 7.046412540666647664e-18 5.667639636912075672e-17 2.577134936604881137e-16 -8.847127161577314877e-17
3.273865760221855159e-01 3.202418577652442755e-01 3.130971384981094952e-01 3.059524187160242437e-01 2.988076989142327000e-01 2.916629795879792653e-01 2.845182612325080629e-01 2.773735443430622727e-01 2.702288289102284802e-01 2.630841121009164785e-01 2.559393938068102448e-01 2.487946744771102059e-01 2.416499548658659902e-01 2.345052343443215226e-01 2.273605177019178414e-01 2.202157912960660269e-01 2.130710897981281104e-01 2.059264094221715524e-01 1.987810903799443751e-01 1.916408868197105597e-01 1.844918996175209935e-01 1.771831092391047691e-01 1.696824436537275882e-01 1.620399343633711353e-01 1.542957820367518718e-01 1.464932188258721568e-01 1.386761941869144033e-01 1.308873360812929376e-01 1.231668817086402079e-01 1.155515988208412059e-01 1.080741085398749385e-01 1.007625168453135794e-01 9.364073793481669794e-02 8.672861769488977857e-02 8.004228004292850140e-02 7.359457091397847428e-02 6.739552631790803050e-02 6.145282974450615859e-02 5.577223217451760667e-02 5.035794644946945536e-02 4.521297662221945846e-02 4.033939469558761592e-02 3.573858640378258650e-02 3.141145928735084025e-02 2.735862399837864917e-02 2.358053943321589824e-02 2.007763080874384529e-02 1.685040038377505142e-02 1.389952210607468645e-02 1.122592239422160083e-02 8.830867105913631221e-03 6.716001215062926757e-03 4.883504212894122787e-03 3.335997970589199557e-03 2.076701762239644040e-03 1.110700816860907096e-03 4.374960087959012364e-04 8.190144176214360383e-05 -9.673013327652599212e-06 1.343011254137150148e-06 1.107135716232168260e-07 -2.107493493387765435e-07 1.021585741670661696e-07 -3.542624594330815239e-08 1.120674291638695728e-08 -2.836414881788190729e-09 4.131120145114759340e-10 1.203788411490914975e-10 -1.044945022461284768e-10 4.089756860362210857e-11 -1.296936880534985424e-11 3.680939765876105085e-12 -8.494051908547243362e-13 6.271943444794475466e-14 5.061883568148609201e-14 -3.419296157262780836e-14 1.556996261888554208e-14 -5.617243224533876244e-15 1.101365499795380534e-15 -3.314989224192873114e-16 2.081759320427933360e-18 7.001575585659891885e-16 -1.065078536109805548e-16 4.876034712516543313e-17 -4.286275015418423277e-16 3.529728749916569771e-16 -1.149257012893612609e-16 3.046259774987401560e-16 -2.304248996806112824e-16 -9.727885647504300855e-16 2.099240888654525552e-15 -1.393837014073747263e-15 -4.164693020308256849e-16 4.103379687501375071e-16 2.886185931991230233e-17 6.463579489369549955e-16 3.024443902916371024e-15 -3.927766426973994427e-15 -5.392055944003433832e-16 2.921841816385064852e-15 -2.477679805068852861e-16 1.895064192692898537e-16 -6.614381336577949560e-15 -1.082745319901561111e-14 1.109776288506521609e-14 5.598113980567821130e-15 1.359366830215016284e-15 1.013861958333116706e-15 -1.175975421089917548e-14 4.723115878632145869e-14 -3.633462718807841986e-14 3.658952149548999181e-15 2.230439620678821988e-15 -1.320051150723439500e-15 -3.172258538931585196e-16 4.482530340406189042e-16 -1.464927776124457647e-15 2.813766948665154778e-15
3.320741696238930230e-01 3.249294532017298343e-01 3.177847376481081620e-01 3.106400203936068860e-01 3.034953017846231949e-01 2.963505823151970087e-01 2.892058624793689137e-01 2.820611427711778862e-01 2.749164236846648457e-01 2.677717057140175383e-01 2.606269893528967985e-01 2.534822737575950224e-01 2.463375565227171882e-01 2.391928374221815590e-01 2.320481202820919853e-01 2.249033897999699327e-01 2.177587129678506817e-01 2.106138435424538546e-01 2.034695447338533691e-01 1.963243231209727824e-01 1.891884684108035841e-01 1.819182828985913269e-01 1.744091635317356892e-01 1.667174167854194033e-01 1.588840212403129226e-01 1.509562661742140377e-01 1.429829261423691267e-01 1.350122860515041157e-01 1.270902174415218522e-01 1.192590808857278833e-01 1.115567093883540195e-01 1.040158727703611730e-01 9.666417580993640069e-02 8.952458379689418044e-02 8.261568210448611005e-02 7.595218354005270345e-02 6.954548477128874584e-02 6.340421432843093563e-02 5.753474256777957319e-02 5.194163694038807927e-02 4.662806112164429723e-02 4.159611656369928412e-02 3.684711953696100800e-02 3.238184295696087261e-02 2.820072249239517423e-02 2.430401735719868450e-02 2.069195146159263227e-02 1.736483286790942507e-02 1.432315768935063863e-02 1.156769804318054720e-02 9.099595698834967578e-03 6.920404773773409721e-03 5.032258359075239551e-03 3.437768191078674051e-03 2.140183747767400013e-03 1.144849757850420740e-03 4.505192104763826614e-04 8.579026451488635716e-05 -1.163009435740958491e-05 1.911596321973720423e-06 1.349381630928735324e-07 -2.564368721666343242e-07 1.260969414446907275e-07 -4.304336278631457490e-08 1.275160128334179934e-08 -2.884043837323031411e-09 3.238369454837625488e-10 9.600155198078806683e-11 -9.673522503896461086e-11 4.423862880718455213e-11 -1.390175436580976562e-11 3.972723541050294007e-12 -9.186090329871403825e-13 7.635661504590699633e-14 6.328006451249162565e-14 -3.668024750478768918e-14 1.646105346638976041e-14 -6.514792619666681639e-15 -3.623209857627449833e-16 -1.257851635375202382e-15 -1.886131366317578453e-17 1.790952414780749524e-15 1.218595743176414797e-16 3.296407390175653618e-15 -6.739972798958065450e-15 5.180829356794473506e-15 -3.128266337242179467e-15 7.438752122175595393e-16 1.192050373596770766e-16 3.463730087927644420e-16 1.330042201202994788e-14 -1.688533552832415334e-14 2.880499304248547169e-15 -2.068020272091639030e-15 2.421689016066850255e-15 2.245697835076794289e-14 -7.263840395812600139e-15 -6.358853760343314524e-16 -8.186953107196152151e-15 -7.268017554433379319e-16 6.720176806314075676e-16 4.141951110609883336e-14 2.800592511154716645e-14 1.503798013658772630e-13 -2.042506085022862466e-13 9.505032581691041761e-15 1.702576634111320544e-14 -1.020616264977011931e-14 -7.294790017852451804e-14 1.132218571343712939e-13 -6.929028876887289831e-14 3.445116752866526995e-14 -1.584038208734749076e-14 9.724029486947078769e-15 -1.979562635771789397e-16 1.102685929970370424e-14 -1.571461096762054761e-14 1.170099139973141790e-14
3.368804437488488457e-01 3.297357241277660278e-01 3.225910052235566594e-01 3.154462875289052448e-01 3.083015715364970655e-01 3.011568556539096497e-01 2.940121380428477038e-01 2.868674191942101048e-01 2.797226996006815236e-01 2.725779797551540762e-01 2.654332601500632993e-01 2.582885412901478883e-01 2.511438236060827278e-01 2.439991077030485844e-01 2.368543922741620789e-01 2.297096698541916948e-01 2.225649798451396211e-01 2.154201152312804624e-01 2.082760348365419178e-01 2.011288297219996357e-01 1.939972603566205434e-01 1.867736189227980625e-01 1.792783916165656133e-01 1.715532054617665836e-01 1.636420785058131100e-01 1.555961397969612692e-01 1.474688839161819864e-01 1.393145585131521647e-01 1.311855863255465826e-01 1.231305349883351080e-01 1.151931857187976499e-01 1.074116589488095935e-01 9.981808524623535239e-02 9.243890840727238267e-02 8.529555100638956666e-02 7.840485971659945375e-02 7.177976659817913996e-02 6.542994666336242326e-02 5.936243078506878851e-02 5.358215262944419910e-02 4.809242194608633753e-02 4.289532541359725865e-02 3.799206128817671918e-02 3.338321643345274620e-02 2.906899489273853318e-02 2.504940675213396598e-02 2.132442517546504629e-02 1.789411824302787959e-02 1.475876257619902591e-02 1.191893878371090218e-02 9.375631337805542809e-03 7.130276413440329343e-03 5.184932494087031440e-03 3.542187717744359633e-03 2.205327124654874512e-03 1.179688249981766541e-03 4.648888237945027722e-04 8.617157183290407934e-05 -9.162303027978838476e-06 1.325727441437636283e-06 1.147098331709017110e-07 -2.329971400774471441e-07 1.290862345840322848e-07 -5.137652254755005307e-08 1.516043994156961198e-08 -3.584015552963457288e-09 5.170141329594855027e-10 1.317945045686882287e-10 -1.221736216714260635e-10 5.725242406865406466e-11 -2.018804046126632751e-11 4.999189818769997660e-12 -8.079414587957000552e-13 5.718664307055624845e-14 4.789855482412542186e-14 -4.648918009591886144e-14 2.979023216602097229e-14 -2.190997812179651617e-14 1.678876223546728637e-14 -4.331355369092908059e-15 1.587493833521900461e-16 -1.946575309566280947e-15 5.760515043244359762e-16 -1.293575993794410483e-14 1.856692464291911107e-15 2.106416791683346623e-14 -4.027690425131995855e-15 -2.639922110001178682e-15 -2.325665345028786000e-14 1.730103250684640366e-14 -3.956899332064313490e-15 -2.376712867408490514e-14 4.409342302419325361e-14 -5.779790574088639138e-15 -1.995449564782491753e-14 -1.012709816040383718e-14 1.628594502368651150e-14 1.071480726402760189e-14 -3.382371275853017092e-14 3.744783610910994463e-14 -7.880718698152783021e-15 -6.799112486779064851e-15 1.440647233216990000e-13 -1.057763617456702706e-12 8.233280667322325253e-13 -1.031168340968007388e-13 5.386091900033195479e-13 5.003583452347504544e-14 -1.071253540016226274e-13 -4.101683362628421476e-14 1.207857028890253255e-13 -5.639885434328919596e-14 -7.449064495066357614e-14 1.813264412182232035e-14 1.298954851428754747e-15 1.650766421916475855e-14 -3.111803716528904495e-14 3.108111199765524618e-15
3.418053929914713351e-01 3.346606740212312858e-01 3.275159543706501752e-01 3.203712345314382315e-01 3.132265149953044059e-01 3.060817962539580939e-01 2.989370787991095235e-01 2.917923630835244642e-01 2.846476468862212394e-01 2.775029290414845473e-01 2.703582100408911115e-01 2.632134903873482035e-01 2.560687704870147630e-01 2.489240512124147042e-01 2.417793317296118571e-01 2.346346161773340544e-01 2.274899004069002306e-01 2.203451472562144020e-01 2.132007346836052031e-01 2.060542391081899294e-01 1.989192700548921833e-01 1.917387813334107960e-01 1.842854301554046614e-01 1.765450250003757215e-01 1.685707465471808220e-01 1.604161786472090012e-01 1.521394834170192445e-01 1.438010837568733380e-01 1.354605353562807479e-01 1.271737384888652345e-01 1.189911478408440942e-01 1.109570209178244032e-01 1.031088217630829473e-01 9.547717255099971712e-02 8.808667702735886729e-02 8.095663161378179040e-02 7.410170851505505640e-02 6.753274614736599901e-02 6.125748716848494757e-02 5.528123520007891673e-02 4.960741975959858524e-02 4.423807081731124385e-02 3.917421109375735649e-02 3.441617722607841906e-02 2.996388160047852925e-02 2.581702600374300577e-02 2.197527701797238539e-02 1.843841143940741847e-02 1.520644007593942304e-02 1.227971074015929941e-02 9.659014750671119504e-03 7.345638036549796863e-03 5.341541463043049213e-03 3.649262730331765021e-03 2.272085260937928026e-03 1.215571017866203885e-03 4.785871541878335524e-04 9.094938630466066346e-05 -1.227201573594552297e-05 2.046044784098018453e-06 1.583779597988988713e-07 -2.953329868202889048e-07 1.431965225140554762e-07 -5.004167754017402538e-08 1.488716512459651586e-08 -3.431645798850357232e-09 3.873510036487360436e-10 1.130389499669487638e-10 -1.105150375397280031e-10 5.078224017409030450e-11 -1.716876845686574012e-11 4.886549399774115545e-12 -1.032540704445882294e-12 8.096041220299689960e-14 6.483517775209230855e-14 -4.727750672374185358e-14 5.155744439152935937e-14 -5.084539058153091312e-14 2.712804838754703366e-14 -1.108699619778713905e-14 1.528360668090679204e-16 -6.895349900652147697e-15 -1.454064070393105030e-14 -9.170300167110031645e-15 3.777661962461891685e-14 -5.897165334598699740e-15 -2.357206068000376973e-14 -6.710414953565175618e-15 2.383195969584058581e-15 -1.042601851973336820e-13 3.949141887129199884e-14 6.936185885819108867e-14 -6.492887263320059507e-14 5.975120775582983640e-14 -7.480830468649893385e-14 6.395512864115989632e-14 2.569459266273942496e-13 -1.441541701929784810e-12 1.352395283575548494e-12 -3.291728873210538842e-14 3.098862149869318806e-13 4.822893443505230097e-13 4.812697313951519358e-12 -5.074640635142651413e-12 5.080076071439409590e-12 -6.336639068785038466e-12 2.838145878831360869e-12 1.272117685213200595e-13 -1.601393495259206075e-12 7.030582578171643910e-13 2.185048557808861334e-13 -1.551271950866647869e-13 -1.625282126505710227e-13 2.050754144753498108e-13 1.395012436615288903e-14 -1.085024809112414286e-14 6.176718627040595575e-14 -1.269201276553347107e-13
3.468490072682640646e-01 3.397042916245411326e-01 3.325595753094176543e-01 3.254148573807640887e-01 3.182701383289132102e-01 3.111254186441978486e-01 3.039806988169515001e-01 2.968359793375072719e-01 2.896912606961987158e-01 2.825465433833583839e-01 2.754018277771472789e-01 2.682571114022095915e-01 2.611123933971207789e-01 2.539676744954871834e-01 2.468229539569292419e-01 2.396782377223116989e-01 2.325335046507658043e-01 2.253888299001174378e-01 2.182440127968474364e-01 2.110992563257450827e-01 2.039569857322682811e-01 1.968087776550715151e-01 1.894232546976309106e-01 1.816888988644569658e-01 1.736696418050692747e-01 1.654190428588250272e-01 1.569998063896571316e-01 1.484787984228368718e-01 1.399231305873931408e-01 1.313970167747040563e-01 1.229588023636308536e-01 1.146597322527163343e-01 1.065433796263481891e-01 9.864547614125285246e-02 9.099428832029515801e-02 8.361188873104544172e-02 7.651493088806893272e-02 6.971555211649890782e-02 6.322226412133415130e-02 5.704074305638537346e-02 5.117450491121310757e-02 4.562546797383938701e-02 4.039441298277118841e-02 3.548135544934715585e-02 3.088584536500018837e-02 2.660720852032455105e-02 2.264474193367788449e-02 1.899787371895035257e-02 1.566629739645507280e-02 1.265008251375488238e-02 9.949787405498214735e-03 7.566514250172080847e-03 5.502095835497857780e-03 3.758998597532768864e-03 2.340496912866027197e-03 1.252229151640108775e-03 4.931892012703458731e-04 9.284498582254972613e-05 -1.156083539605267401e-05 2.112021667478933810e-06 1.878502631931863569e-07 -3.473437752218070331e-07 1.693794787709772346e-07 -6.053358338553202296e-08 1.624343968716661851e-08 -3.712302578186861050e-09 4.276509445911945594e-10 1.121964313773728483e-10 -1.026358273377109304e-10 4.739058727038324122e-11 -1.794858400360403899e-11 5.622211650288796979e-12 -1.148899979066702283e-12 7.944182594815317061e-14 1.593892109533292847e-13 -2.569506896588420957e-14 -2.170823608272320644e-14 2.816953479890955121e-14 -1.272586400094733965e-13 1.387324350076830030e-13 -8.832464039753569137e-16 -3.375689164672206428e-14 1.409999180780456327e-14 1.171789263357895494e-14 1.679894052608332348e-13 -4.705031150632139516e-13 3.736627587362554857e-13 4.414225792314037235e-14 2.383357719964589370e-13 -3.211703895923756800e-13 2.057592472980546612e-13 2.793223445337011291e-13 -6.267333696207438313e-13 8.895930630686709947e-14 4.102758999498660726e-14 -2.681929637743712790e-13 2.813280405855339060e-12 -4.773013255557998932e-12 7.782315967665167771e-12 -8.244498940802594580e-12 2.465788028443926200e-13 -2.555486635096264563e-12 6.412829633104202324e-12 -3.204639050650522199e-11 2.046211454073919660e-11 1.891973649564837154e-11 -1.517359925206311069e-11 8.569130395180005988e-14 -1.934236311965313701e-12 1.126366815349504887e-12 1.457174061111360916e-12 -8.073592563815255340e-13 -1.420308113925362608e-12 2.679905935609239922e-13 2.534177783519331684e-14 7.078954876647589774e-14 -5.494791548064184858e-13 -5.684114559636614960e-14
3.520113005884699109e-01 3.448665811063645892e-01 3.377218624566517002e-01 3.305771451287478069e-01 3.234324295084315959e-01 3.162877131443706524e-01 3.091429951818100985e-01 3.019982761101647761e-01 2.948535564188500269e-01 2.877088365972805262e-01 2.805641171351235807e-01 2.734193985216177847e-01 2.662746812535684016e-01 2.591299656690366771e-01 2.519852490178124960e-01 2.448405327687617483e-01 2.376958036167672872e-01 2.305511326034061503e-01 2.234062045308347344e-01 2.162622729911377883e-01 2.091150607298777053e-01 2.019831054699799677e-01 1.946800358142123100e-01 1.869790890879291512e-01 1.789368285158652039e-01 1.706063662427970418e-01 1.620545079834450064e-01 1.533545465193386637e-01 1.445817535651562902e-01 1.358093479034366835e-01 1.271050334943644167e-01 1.185282043833051219e-01 1.101294999992862012e-01 1.019505093373570953e-01 9.402410337566280418e-02 8.637541955994641751e-02 7.902336940979216851e-02 7.198154707585828482e-02 6.525929764103773068e-02 5.886266961107620294e-02 5.279522375981026555e-02 4.705870063078296944e-02 4.165356066290667320e-02 3.657941583505137234e-02 3.183537247651828384e-02 2.742030339967652108e-02 2.333306509230815076e-02 1.957267284239384147e-02 1.613844577324621832e-02 1.303012508709776134e-02 1.024799233929672183e-02 7.792929809599832142e-03 5.666608211293502721e-03 3.871401155889187852e-03 2.410563750085064488e-03 1.289681075538639350e-03 5.085228151998109425e-04 9.410710315503469732e-05 -9.981645467859899526e-06 1.481951234993989228e-06 1.313067196237843765e-07 -2.707564130198690986e-07 1.423077094485298159e-07 -4.967941907474402915e-08 1.357485560229734965e-08 -3.351150293002007397e-09 4.770012795288314313e-10 1.502420045058258395e-10 -1.382821736256039549e-10 5.405167248637728798e-11 -1.475540819344658223e-11 3.723503966820019313e-12 -8.829617692931871699e-13 3.084868404485573115e-13 4.236271696379354379e-13 -1.589677142161887619e-14 -1.467339637002149230e-13 -1.157424901762264908e-13 2.333687874598175722e-13 -5.834812702906573932e-14 -1.469853449758933753e-15 -4.005970104888466270e-13 -2.617171896776917129e-13 -7.991455154162223386e-14 2.785113357661500768e-13 7.979096602018890851e-13 -9.250938542375300065e-13 6.784738226705226231e-14 -2.690452644260159425e-12 1.836710071059170399e-12 1.277586438145633628e-12 -3.627786871440263825e-12 3.202819984415613002e-12 -2.898013472498613072e-13 -2.017926164339002561e-13 2.394402099729110442e-12 8.066901685912715583e-13 -7.739919138236586068e-12 1.075766919479190818e-11 -1.049227916507348422e-11 4.525392913356862615e-12 -2.359964259679802109e-11 -5.491998020608862862e-11 2.040306212605635556e-10 -1.692356713376029270e-10 3.727061271446802788e-11 -2.483753965475882318e-11 -1.026070766765113405e-12 3.477502788593015044e-12 -8.957122741488064391e-13 2.470838010876026015e-12 -2.409112748197089166e-12 -8.839150745571671812e-13 1.476432983569178668e-12 7.685360008829664960e-14 1.855726530342561590e-13 1.760862229054242508e-13 -1.495084237551030490e-12
3.572922703511184905e-01 3.501475513483250923e-01 3.430028316889723317e-01 3.358581118619113903e-01 3.287133923559918403e-01 3.215686736600634754e-01 3.144239562629745910e-01 3.072792405876245136e-01 3.001345243026435905e-01 2.929898063995696744e-01 2.858450873673967219e-01 2.787003676949525444e-01 2.715556478878474178e-01 2.644109283223216034e-01 2.572662099138169345e-01 2.501214919914224177e-01 2.429767762745881909e-01 2.358320721989134450e-01 2.286872550651434244e-01 2.215431088920447600e-01 2.143956101560164917e-01 2.072646784179000279e-01 2.000398407693128044e-01 1.924083874971249386e-01 1.843684521679588573e-01 1.759783318588401257e-01 1.673075293567471977e-01 1.584350302601718052e-01 1.494449336499830971e-01 1.404203969793339779e-01 1.314394804573983666e-01 1.225716215693082312e-01 1.138755659298837514e-01 1.053997381778106340e-01 9.718239191641697694e-02 8.925245981795158767e-02 8.163131158871374249e-02 7.433418333465008354e-02 6.737132619393171318e-02 6.074915733635525422e-02 5.447123050461329108e-02 4.853902928297162273e-02 4.295260159721066978e-02 3.771106017292950169e-02 3.281297435718648348e-02 2.825667648287558814e-02 2.404050258746877680e-02 2.016298350211166712e-02 1.662300069922412540e-02 1.341991176838478773e-02 1.055367429034400478e-02 8.024908714487676356e-03 5.835094159736325600e-03 3.986477226611643068e-03 2.482247439126541045e-03 1.328206612745571908e-03 5.230864745773614304e-04 9.938726448696543945e-05 -1.320018318646035568e-05 1.930529339346407042e-06 1.249504518662369431e-07 -2.046606882878227635e-07 8.938491491100709093e-08 -3.327738218179767245e-08 1.230654399449054287e-08 -2.965153131466811594e-09 3.386489075214912971e-10 9.834049661076728292e-11 -8.496814679188729181e-11 3.281313875046719403e-11 -1.162420615456629144e-11 6.191864972570701279e-12 -3.583110575596387927e-12 5.732340202823213578e-13 2.748876479283235603e-12 -2.165684384741884817e-12 -1.169730343179307276e-12 2.255806479849708477e-12 -1.795209551548848970e-12 1.398591115232537271e-12 6.735884895018819872e-15 5.468564450108129045e-13 -1.709435290079501288e-12 4.298975901048624679e-13 3.557803134647026845e-12 -6.907721005411128544e-12 5.265050408010110793e-12 1.442811608842010139e-12 -3.116655318242738450e-12 9.384049683587898979e-12 -6.003544027113399598e-12 -7.195327144910498821e-12 1.268627182126403641e-11 -3.765073522438350734e-12 6.187695072524880891e-12 -1.118279727832451361e-11 2.049399946866700286e-11 -1.119727407642172954e-11 -2.048085909190189041e-11 5.667406630639188444e-11 -3.145225377422799326e-11 -5.414524042339091062e-11 -3.501664068351848232e-10 -1.737117360685266736e-11 2.872666422806566374e-10 5.842193051459604451e-11 -1.417825067239577645e-10 -3.153244867517702619e-12 1.735526743979924104e-10 -1.700961967978767965e-10 8.554233744675291517e-11 -3.513615429362975360e-11 5.434295025247584218e-12 3.846226011380477664e-13 1.773082777615182741e-12 -8.676712591244661548e-12 2.355793094092754859e-12 -3.342863597604859978e-12
3.626919046002838320e-01 3.555471886788131308e-01 3.484024726504538205e-01 3.412577549476779604e-01 3.341130360550621514e-01 3.269683164571891010e-01 3.198235966386500650e-01 3.126788770840453480e-01 3.055341582779862453e-01 2.983894407050932673e-01 2.912447248418601475e-01 2.841000087504023663e-01 2.769552910054463579e-01 2.698105720276086639e-01 2.626658526825002560e-01 2.555211317351255285e-01 2.483764165524126877e-01 2.412316833065208665e-01 2.340870016945912624e-01 2.269422730050345560e-01 2.197969359011902601e-01 2.126577721643112540e-01 2.054914239946330212e-01 1.979673221327698240e-01 1.899582363126187945e-01 1.815333993254957257e-01 1.727615820977528027e-01 1.637266530894921357e-01 1.545213643634698042e-01 1.452402009029900853e-01 1.359727781221684861e-01 1.268000196182967609e-01 1.177907817243616512e-01 1.090013095334404630e-01 1.004760994824916015e-01 9.224874795844388575e-02 8.434343853843270788e-02 7.677721321332499349e-02 6.956131171919956169e-02 6.270251184805485101e-02 5.620429630587201603e-02 5.006779685395533475e-02 4.429254034619300312e-02 3.887702907111217215e-02 3.381918826702275810e-02 2.911671040335089139e-02 2.476732116200640668e-02 2.076898702702484334e-02 1.712008176646220153e-02 1.381951872512526304e-02 1.086687910496015805e-02 8.262478791110160203e-03 6.007564598437333502e-03 4.104232109428225354e-03 2.555605619768119927e-03 1.367410855875573648e-03 5.391144895412988171e-04 9.997779411217091344e-05 -1.065163224419389884e-05 1.565451951851965394e-06 1.346958953047357664e-07 -2.793805816234917882e-07 1.582497489958610995e-07 -6.127155095672809781e-08 1.568674485247801375e-08 -3.568141543425757216e-09 3.968171409685617118e-10 1.101024278080044319e-10 -1.240862993012720496e-10 6.767977938249404174e-11 -2.733979145749267005e-11 1.848924835405417663e-11 -2.228977316823207332e-11 9.622394155393337682e-12 9.199328662353974527e-12 -1.142503189637333417e-11 -1.036477858396571228e-11 1.937067126686530615e-11 -1.200469632107580653e-11 9.531352590597882728e-12 5.887811099572115847e-14 8.390060286433664893e-12 -4.590714576825368690e-11 1.763568422431663476e-11 6.770413701368400830e-12 3.026835942253714864e-11 -3.457148987474540091e-11 -7.070567817630774331e-13 -3.863892230512406403e-11 2.826639678182977642e-11 1.933008803697116235e-11 -1.942039303971840505e-11 -2.290652842317591815e-11 2.042105952652338472e-11 2.078798549155179154e-11 3.653745970490159557e-11 -4.712188562399582855e-11 -1.090329769167819630e-10 3.259314474024063018e-10 -6.095882437789429666e-10 3.537339281875236239e-10 4.148951173867952657e-10 -4.009558836186498914e-10 2.483942437787296120e-09 -3.822234246567612036e-09 2.274902268736864239e-09 -4.150737893199272278e-10 -9.111019536437291645e-11 4.920919721762319457e-10 -1.246450089709931913e-10 -8.444901851503703394e-11 -2.998701410867085273e-11 1.399315777737466070e-10 -1.283674141865940504e-11 4.207679298271945080e-12 -9.933074822154629718e-12 6.078179399222883114e-13 -3.444904668007632443e-11
3.682102188900144846e-01 3.610654992058013324e-01 3.539207801813645804e-01 3.467760623119797714e-01 3.396313460926942973e-01 3.324866304232897418e-01 3.253419130041878549e-01 3.181971942795353558e-01 3.110524747449429639e-01 3.039077548957896946e-01 2.967630352272062622e-01 2.896183162343154982e-01 2.824735984115155918e-01 2.753288822539078917e-01 2.681841665772036754e-01 2.610394486527730096e-01 2.538947326906752511e-01 2.467499988914465536e-01 2.396053426398898067e-01 2.324603710850644822e-01 2.253165173580558567e-01 2.181695331772152413e-01 2.110349493610250982e-01 2.036406024428726036e-01 1.956970850231196379e-01 1.872678861615129364e-01 1.784178962023913739e-01 1.692349007809550165e-01 1.598199303970233298e-01 1.502792808093352805e-01 1.407162147290511867e-01 1.312245323364383542e-01 1.218852801119592044e-01 1.127641708952704519e-01 1.039129551641101851e-01 9.537059296498101579e-02 8.716487438922891628e-02 7.931472460589926443e-02 7.183246487798729263e-02 6.472521983770831988e-02 5.799632208105776759e-02 5.164643791964277503e-02 4.567444539694331951e-02 4.007810729066845629e-02 3.485458175704083533e-02 3.000080843989990850e-02 2.551380140963011023e-02 2.139087361813208840e-02 1.762981366160917135e-02 1.422902396431555486e-02 1.118765330575404934e-02 8.505663636638049682e-03 6.184035323010972189e-03 4.224673478602501350e-03 2.630583402918071443e-03 1.407702816482330572e-03 5.543955305273123553e-04 1.055416948398773245e-04 -1.448228709416298206e-05 2.606166232845443106e-06 2.142439588670652789e-07 -3.719904168048692995e-07 1.653608593381558141e-07 -5.557723033454232876e-08 1.563016609919941822e-08 -3.140701047731195827e-09 3.865717612613081307e-10 8.204230511135280633e-11 -6.244825262371510750e-11 -2.227032350305232268e-11 3.241407388993041099e-11 7.762041685354788020e-11 -1.449413733701839036e-10 2.947605816234011187e-11 1.643260879661164137e-10 -1.554896790827496489e-10 5.047548225850431920e-11 1.192688491554074042e-10 -1.705145180905156069e-10 1.844113468534922790e-11 -5.059172602548441712e-13 1.983680680429040022e-10 -3.569747448676953579e-10 8.024411221224230263e-10 -8.198024691797960806e-10 2.921370227684944603e-10 -1.067270231111299154e-10 -7.081132815002765066e-11 9.406372538480573387e-11 7.860459620200477798e-11 2.545685209773476642e-11 -3.693733990854088708e-10 7.063382332836632589e-10 -5.325514732808116389e-10 -1.719560107356691081e-10 1.113612831581389948e-10 3.626354242212186458e-10 -5.583572781317555159e-10 -3.952246766438655218e-12 -1.945316982644755143e-11 5.813921251489114842e-10 7.118145172230238642e-09 -1.343512707237708101e-08 1.004294689866209387e-08 -5.567596757773489657e-09 7.581868525003476996e-09 -8.111442286395563301e-09 -1.709178621258342396e-10 1.782261865693939849e-10 1.154492063362461569e-09 -9.369311291720387960e-10 2.286955073586665155e-10 -1.989291728931891005e-10 1.617765930715482540e-10 1.384893697208543439e-11 -2.065224983456199276e-10 2.289807255024408703e-10 -2.922680061997607721e-10
3.738472082434723398e-01 3.667024898429155910e-01 3.595577704847542355e-01 3.524130506592514922e-01 3.452683308638680448e-01 3.381236116038406903e-01 3.309788933928092813e-01 3.238341767534940741e-01 3.166894613951483084e-01 3.095447444309636920e-01 3.024000259835031845e-01 2.952553065530854615e-01 2.881105866490598078e-01 2.809658668115275759e-01 2.738211474364887765e-01 2.666764295260591888e-01 2.595317126100952221e-01 2.523869958207728414e-01 2.452423001219731502e-01 2.380974382349317076e-01 2.309534819078683798e-01 2.238052599647201435e-01 2.166769576288384569e-01 2.094056125923607348e-01 2.015736087326444603e-01 1.931753009427567558e-01 1.842756946960203979e-01 1.749641412753388525e-01 1.653490451354679980e-01 1.555487908282890130e-01 1.456818491592345444e-01 1.358573871155953072e-01 1.261702588181920770e-01 1.166982143971873054e-01 1.075014018805567351e-01 9.862505364084897530e-02 9.010124175212169684e-02 8.195118121050243287e-02 7.418827112071652019e-02 6.681996273833264166e-02 5.984934262967677582e-02 5.327647628436162769e-02 4.709944247345396878e-02 4.131511418923463491e-02 3.591974116667835670e-02 3.090938212893233963e-02 2.628022614857390693e-02 2.202883375224246043e-02 1.815232284655514394e-02 1.464851152662616056e-02 1.151605266191936018e-02 8.754502672970152638e-03 6.364524928660326465e-03 4.347805462027586054e-03 2.707242371625476381e-03 1.448617330314983615e-03 5.712117704408125642e-04 1.058727494805557342e-04 -1.106328563129310526e-05 1.415744524898324600e-06 1.073405419841178818e-07 -2.401745787668089707e-07 1.397577399069156415e-07 -5.266954475182651151e-08 1.347441076694297322e-08 -8.873053866517607004e-10 5.096756987502672809e-11 -4.571134361737444587e-10 7.465850062882344220e-10 -1.665457948068945127e-09 1.682605270867770433e-09 -1.222479443192281981e-09 7.086262354717702011e-10 4.275087738753101051e-10 1.666386022240121291e-10 -1.752861557202659014e-09 1.746079536185954207e-09 -1.496983976978477845e-09 -3.451430631205791525e-11 2.422726587947622084e-09 -7.974502863178508261e-12 -1.583926932528152951e-09 -3.448334267879812446e-09 5.856952230115151742e-09 -5.061783509898830425e-09 3.757182619268071855e-09 -1.047155277496484518e-09 -9.226600252383571644e-10 7.126681408872496078e-10 -3.625030443291383233e-09 4.001990652757702239e-09 -2.889866546404501689e-09 1.832231337434424846e-09 1.121798805626828933e-09 -3.335691279324658730e-09 5.945216836441714942e-09 -1.075216718111217406e-08 1.304826201469199781e-08 -1.914578499143052380e-08 2.249995943948539038e-08 -2.865201794025587261e-09 -2.953014627862105290e-08 -1.211566934148368011e-09 1.459618951807543130e-08 -1.627588563267076178e-08 1.880890620078371203e-09 3.054102425598133368e-08 4.015933309591028430e-10 -7.213973926623794904e-09 8.224437270310565605e-09 -1.130588736068108393e-08 9.527707396898733177e-09 -1.788206933267254381e-09 2.223585173363961170e-10 5.466453410852054316e-10 -4.444748624232429286e-09 4.002039236924672652e-09 -4.552192225533863670e-09
