ncols	201
nrows	52
xllcorner	20
yllcorner	2940
cellsize	20.000
NODATA_value	-9999.000
1279.121 1279.006 1278.804 1278.574 1278.357 1278.159 1277.990 1277.868 1277.780 1277.684 1277.568 1277.466 1277.381 1277.277 1277.141 1276.997 1276.852 1276.722 1276.644 1276.655 1276.788 1277.056 1277.334 1277.392 1277.198 1277.035 1277.121 1277.285 1277.286 1277.243 1277.591 1278.958 1281.722 1285.087 1287.429 1288.103 1288.068 1288.732 1291.002 1294.827 1299.178 1303.091 1306.510 1309.830 1313.147 1315.995 1317.727 1318.331 1318.703 1320.008 1322.699 1326.190 1329.425 1331.515 1332.176 1331.993 1331.817 1331.918 1332.119 1332.404 1332.960 1333.842 1334.845 1335.587 1335.639 1334.669 1332.685 1330.240 1328.096 1326.351 1324.286 1321.352 1317.858 1314.564 1311.908 1309.762 1307.883 1306.291 1304.998 1304.119 1304.729 1308.190 1313.937 1319.682 1324.123 1327.657 1330.747 1333.277 1335.264 1337.155 1339.326 1341.703 1343.968 1345.896 1347.474 1349.103 1351.509 1354.940 1358.877 1362.833 1366.819 1371.181 1376.590 1383.821 1393.096 1403.698 1414.228 1423.313 1430.235 1435.008 1437.997 1439.584 1440.107 1439.845 1438.959 1437.538 1435.772 1433.900 1432.012 1430.084 1428.117 1426.068 1423.776 1421.130 1418.423 1416.367 1415.436 1415.430 1416.082 1417.584 1419.918 1422.050 1422.491 1420.658 1417.209 1412.871 1407.702 1401.881 1396.339 1392.129 1389.760 1389.291 1390.556 1393.234 1397.034 1401.841 1407.575 1414.115 1421.264 1428.395 1434.288 1437.830 1438.965 1438.755 1438.458 1438.627 1439.133 1439.865 1441.073 1443.050 1445.609 1447.745 1448.240 1447.126 1445.732 1444.993 1444.833 1445.088 1445.996 1447.928 1450.995 1454.921 1459.292 1463.724 1467.814 1471.233 1473.653 1474.666 1474.554 1474.949 1477.617 1482.786 1489.279 1495.673 1501.162 1505.900 1510.429 1514.875 1519.153 1523.472 1528.223 1533.712 1540.004 1546.692 1552.926 1558.002 1561.908 1565.102 1567.879 1570.095 1571.357
1279.154 1279.036 1278.883 1278.766 1278.642 1278.432 1278.183 1277.987 1277.846 1277.712 1277.576 1277.460 1277.356 1277.230 1277.066 1276.900 1276.783 1276.741 1276.759 1276.809 1276.921 1277.153 1277.443 1277.581 1277.397 1276.998 1276.721 1276.716 1276.774 1276.723 1276.821 1277.737 1279.974 1282.924 1285.063 1285.608 1285.237 1285.197 1286.557 1289.712 1293.955 1298.152 1301.842 1305.210 1308.384 1311.056 1312.774 1313.674 1314.681 1316.787 1320.178 1324.140 1327.684 1330.028 1330.898 1330.809 1330.603 1330.605 1330.707 1330.940 1331.505 1332.426 1333.484 1334.337 1334.550 1333.693 1331.703 1329.174 1326.797 1324.256 1320.531 1315.652 1311.055 1307.920 1306.189 1305.264 1304.794 1304.557 1304.232 1304.025 1305.274 1309.226 1315.114 1320.817 1325.235 1328.667 1331.470 1333.700 1335.642 1337.733 1340.087 1342.500 1344.796 1346.856 1348.604 1350.462 1353.301 1357.347 1361.868 1366.276 1370.682 1375.559 1381.600 1389.476 1399.256 1410.092 1420.424 1428.716 1434.305 1437.539 1439.151 1439.758 1439.785 1439.448 1438.698 1437.391 1435.622 1433.703 1431.840 1430.064 1428.354 1426.554 1424.313 1421.355 1417.959 1415.031 1413.347 1412.902 1413.448 1415.143 1417.938 1420.768 1422.071 1421.066 1418.241 1414.448 1409.894 1404.533 1398.910 1393.957 1390.353 1388.494 1388.644 1390.770 1394.455 1399.171 1404.572 1410.527 1416.934 1423.378 1429.004 1432.987 1435.196 1436.223 1436.693 1436.775 1436.519 1436.339 1436.857 1438.437 1440.872 1443.157 1443.990 1443.204 1442.055 1441.668 1442.149 1443.208 1444.765 1447.052 1450.283 1454.285 1458.687 1463.168 1467.317 1470.703 1472.968 1473.763 1473.421 1473.556 1475.797 1480.282 1486.042 1492.022 1497.591 1502.803 1507.925 1512.730 1516.891 1520.687 1524.800 1529.738 1535.553 1541.779 1547.602 1552.433 1556.330 1559.693 1562.676 1565.053 1566.406
1279.720 1279.528 1279.351 1279.331 1279.249 1278.830 1278.245 1277.827 1277.606 1277.440 1277.279 1277.145 1277.040 1276.932 1276.798 1276.682 1276.655 1276.716 1276.791 1276.832 1276.895 1277.061 1277.320 1277.521 1277.435 1277.001 1276.558 1276.475 1276.613 1276.637 1276.646 1277.195 1278.742 1280.922 1282.606 1283.082 1282.725 1282.479 1283.322 1285.845 1289.663 1293.727 1297.393 1300.671 1303.678 1306.256 1308.141 1309.502 1311.122 1313.803 1317.610 1321.839 1325.622 1328.274 1329.464 1329.541 1329.280 1329.146 1329.188 1329.456 1330.063 1330.973 1332.023 1332.987 1333.428 1332.723 1330.672 1327.950 1325.170 1321.560 1316.080 1309.795 1305.210 1303.404 1303.473 1304.320 1305.507 1306.616 1307.116 1307.402 1309.077 1313.122 1318.400 1323.076 1326.632 1329.507 1331.924 1333.956 1335.947 1338.216 1340.698 1343.191 1345.623 1347.885 1349.901 1352.179 1355.592 1360.212 1365.192 1369.978 1374.790 1380.183 1386.760 1394.951 1404.640 1414.967 1424.431 1431.579 1435.935 1438.069 1438.854 1438.927 1438.659 1438.181 1437.396 1436.155 1434.535 1432.807 1431.158 1429.616 1428.142 1426.540 1424.360 1421.186 1417.228 1413.531 1411.155 1410.279 1410.640 1412.350 1415.410 1418.828 1421.005 1420.916 1418.745 1415.390 1411.441 1406.943 1402.015 1397.060 1392.548 1389.117 1387.641 1388.669 1391.898 1396.460 1401.642 1407.151 1412.848 1418.433 1423.408 1427.363 1430.316 1432.587 1434.216 1434.825 1434.357 1433.576 1433.490 1434.599 1436.704 1438.876 1439.899 1439.557 1438.988 1439.278 1440.517 1442.261 1444.191 1446.450 1449.425 1453.171 1457.424 1461.929 1466.275 1469.875 1472.226 1473.005 1472.664 1472.773 1474.705 1478.457 1483.369 1488.878 1494.510 1500.101 1505.656 1510.776 1514.939 1518.319 1521.758 1526.029 1531.290 1537.036 1542.452 1547.007 1550.781 1554.131 1557.164 1559.603 1560.994
1281.719 1281.435 1281.101 1280.949 1280.653 1279.725 1278.486 1277.632 1277.242 1276.999 1276.765 1276.585 1276.484 1276.423 1276.367 1276.354 1276.434 1276.557 1276.626 1276.641 1276.693 1276.837 1277.046 1277.230 1277.195 1276.836 1276.457 1276.461 1276.704 1276.785 1276.738 1276.977 1277.821 1279.117 1280.224 1280.634 1280.478 1280.352 1281.022 1283.079 1286.370 1290.055 1293.467 1296.514 1299.317 1301.859 1304.007 1305.846 1307.901 1310.823 1314.743 1319.100 1323.133 1326.179 1327.773 1328.045 1327.732 1327.511 1327.619 1328.050 1328.753 1329.648 1330.682 1331.767 1332.447 1331.882 1329.701 1326.631 1323.213 1318.482 1311.859 1305.521 1302.424 1302.898 1305.067 1307.430 1309.619 1311.473 1312.683 1313.604 1315.485 1318.936 1322.887 1326.051 1328.404 1330.475 1332.413 1334.273 1336.318 1338.694 1341.249 1343.835 1346.428 1348.938 1351.378 1354.304 1358.406 1363.539 1368.884 1374.019 1379.223 1385.027 1391.896 1400.040 1409.213 1418.560 1426.734 1432.594 1435.943 1437.407 1437.766 1437.556 1437.059 1436.350 1435.382 1434.143 1432.736 1431.315 1429.953 1428.634 1427.295 1425.734 1423.515 1420.192 1415.911 1411.742 1408.905 1407.715 1407.854 1409.339 1412.288 1415.994 1419.001 1420.049 1418.787 1415.845 1412.197 1408.398 1404.484 1400.268 1395.641 1391.058 1387.787 1387.155 1389.415 1393.651 1398.730 1404.021 1409.253 1414.172 1418.517 1422.208 1425.456 1428.510 1431.107 1432.465 1432.256 1431.276 1430.745 1431.324 1432.914 1434.804 1436.059 1436.479 1436.902 1438.139 1440.175 1442.477 1444.559 1446.471 1448.796 1451.920 1455.752 1460.090 1464.556 1468.461 1471.094 1472.080 1471.919 1472.089 1473.752 1476.889 1481.159 1486.376 1492.099 1497.893 1503.618 1508.928 1513.202 1516.344 1519.145 1522.596 1527.073 1532.198 1537.263 1541.727 1545.493 1548.819 1551.925 1554.587 1556.184
1286.451 1286.170 1285.491 1284.588 1283.376 1281.517 1279.475 1278.115 1277.450 1276.960 1276.487 1276.154 1276.006 1275.968 1275.969 1276.009 1276.105 1276.199 1276.228 1276.244 1276.354 1276.550 1276.732 1276.817 1276.726 1276.474 1276.344 1276.580 1276.939 1277.044 1276.943 1276.944 1277.252 1277.834 1278.418 1278.716 1278.717 1278.727 1279.302 1280.992 1283.813 1287.113 1290.215 1292.957 1295.524 1298.041 1300.433 1302.624 1304.872 1307.745 1311.547 1315.941 1320.248 1323.738 1325.747 1326.207 1325.886 1325.692 1325.997 1326.696 1327.573 1328.531 1329.620 1330.830 1331.653 1331.072 1328.599 1324.965 1320.679 1314.986 1308.165 1303.148 1302.501 1305.434 1309.330 1312.585 1315.094 1317.151 1318.801 1320.197 1321.924 1324.286 1326.707 1328.555 1329.959 1331.339 1332.872 1334.645 1336.769 1339.215 1341.824 1344.511 1347.284 1350.124 1353.152 1356.854 1361.654 1367.258 1372.956 1378.446 1383.993 1390.021 1396.846 1404.582 1412.958 1421.119 1427.880 1432.491 1435.035 1436.094 1436.236 1435.843 1435.126 1434.163 1433.002 1431.750 1430.519 1429.343 1428.190 1427.004 1425.695 1424.044 1421.675 1418.234 1413.876 1409.594 1406.611 1405.307 1405.323 1406.537 1409.133 1412.776 1416.360 1418.526 1418.307 1415.750 1412.009 1408.367 1405.230 1402.091 1398.178 1393.359 1388.772 1386.324 1387.171 1390.815 1395.835 1401.117 1406.161 1410.715 1414.644 1418.050 1421.269 1424.567 1427.631 1429.566 1429.839 1429.055 1428.386 1428.527 1429.520 1431.081 1432.766 1434.317 1436.001 1438.224 1440.965 1443.730 1445.893 1447.350 1448.802 1451.000 1454.110 1457.978 1462.276 1466.310 1469.228 1470.554 1470.720 1471.026 1472.530 1475.350 1479.370 1484.528 1490.309 1496.096 1501.746 1507.082 1511.472 1514.535 1516.848 1519.483 1523.038 1527.378 1532.044 1536.523 1540.442 1543.882 1547.223 1550.344 1552.351
1293.348 1293.398 1292.609 1290.657 1287.848 1284.607 1281.800 1280.123 1279.093 1277.963 1276.828 1276.097 1275.807 1275.746 1275.744 1275.750 1275.767 1275.776 1275.755 1275.768 1275.926 1276.206 1276.422 1276.416 1276.217 1276.054 1276.200 1276.670 1277.116 1277.244 1277.130 1277.017 1277.050 1277.239 1277.483 1277.638 1277.650 1277.653 1278.050 1279.377 1281.793 1284.765 1287.576 1290.015 1292.359 1294.849 1297.390 1299.748 1302.004 1304.687 1308.251 1312.587 1317.133 1321.063 1323.476 1324.131 1323.867 1323.782 1324.313 1325.264 1326.337 1327.447 1328.696 1330.050 1330.874 1330.011 1326.962 1322.489 1317.190 1310.908 1304.860 1302.086 1304.106 1309.055 1314.008 1317.585 1320.016 1321.902 1323.491 1324.836 1326.122 1327.493 1328.803 1329.870 1330.793 1331.833 1333.201 1335.010 1337.250 1339.798 1342.525 1345.385 1348.401 1351.639 1355.312 1359.804 1365.290 1371.383 1377.458 1383.262 1389.005 1395.013 1401.511 1408.591 1416.008 1422.936 1428.372 1431.887 1433.761 1434.495 1434.464 1433.902 1432.977 1431.811 1430.529 1429.275 1428.127 1427.051 1425.971 1424.819 1423.479 1421.713 1419.197 1415.702 1411.422 1407.246 1404.309 1403.037 1403.079 1404.182 1406.470 1409.864 1413.646 1416.539 1417.128 1414.841 1410.771 1406.864 1404.107 1401.932 1399.096 1394.860 1389.851 1386.042 1385.385 1388.167 1393.027 1398.412 1403.472 1407.872 1411.553 1414.725 1417.782 1421.005 1424.143 1426.380 1427.116 1426.753 1426.272 1426.228 1426.733 1428.055 1430.370 1433.229 1436.098 1439.007 1442.165 1445.283 1447.626 1448.819 1449.482 1450.656 1452.830 1455.940 1459.700 1463.499 1466.511 1468.211 1468.855 1469.485 1471.108 1473.976 1478.015 1483.145 1488.850 1494.491 1499.928 1505.097 1509.446 1512.463 1514.502 1516.589 1519.440 1523.107 1527.380 1531.879 1536.065 1539.832 1543.569 1547.182 1549.574
1300.233 1300.939 1300.679 1298.249 1293.938 1289.137 1285.605 1283.849 1282.465 1280.295 1277.951 1276.437 1275.838 1275.696 1275.655 1275.588 1275.503 1275.428 1275.361 1275.344 1275.499 1275.835 1276.109 1276.074 1275.828 1275.738 1276.045 1276.608 1277.069 1277.226 1277.163 1277.071 1277.056 1277.120 1277.207 1277.247 1277.192 1277.093 1277.257 1278.220 1280.264 1282.956 1285.543 1287.762 1289.935 1292.346 1294.858 1297.158 1299.283 1301.742 1305.041 1309.241 1313.937 1318.250 1321.049 1321.935 1321.790 1321.826 1322.490 1323.561 1324.778 1326.110 1327.639 1329.202 1329.929 1328.501 1324.492 1318.859 1312.610 1306.448 1302.176 1302.164 1306.566 1312.765 1317.979 1321.301 1323.303 1324.731 1325.913 1326.924 1327.831 1328.692 1329.507 1330.271 1331.066 1332.071 1333.492 1335.436 1337.850 1340.591 1343.549 1346.688 1350.025 1353.670 1357.920 1363.134 1369.317 1375.964 1382.425 1388.410 1394.102 1399.848 1405.880 1412.244 1418.652 1424.367 1428.630 1431.241 1432.538 1432.936 1432.678 1431.914 1430.801 1429.502 1428.165 1426.907 1425.755 1424.654 1423.535 1422.333 1420.925 1419.072 1416.507 1413.088 1409.005 1405.006 1402.117 1400.842 1400.937 1402.065 1404.214 1407.382 1411.107 1414.246 1415.191 1412.962 1408.551 1404.343 1401.772 1400.264 1398.348 1395.005 1390.357 1385.968 1384.115 1385.912 1390.429 1395.897 1401.079 1405.466 1409.016 1412.013 1414.893 1417.971 1421.078 1423.484 1424.550 1424.546 1424.343 1424.343 1424.601 1425.804 1428.711 1432.732 1436.526 1439.757 1443.001 1446.347 1448.997 1450.232 1450.424 1450.747 1451.993 1454.211 1457.130 1460.307 1463.159 1465.211 1466.478 1467.743 1469.931 1473.188 1477.262 1482.106 1487.477 1492.885 1498.093 1502.949 1507.008 1509.878 1511.858 1513.864 1516.566 1520.052 1524.251 1528.922 1533.541 1537.885 1542.172 1546.178 1548.771
1305.816 1307.045 1307.525 1305.378 1300.420 1294.490 1290.289 1288.513 1286.962 1283.845 1280.086 1277.400 1276.169 1275.778 1275.630 1275.460 1275.262 1275.114 1275.027 1275.003 1275.142 1275.468 1275.749 1275.745 1275.568 1275.553 1275.859 1276.338 1276.743 1276.935 1276.964 1276.973 1277.035 1277.120 1277.172 1277.159 1277.050 1276.865 1276.843 1277.497 1279.200 1281.650 1284.106 1286.221 1288.259 1290.487 1292.755 1294.774 1296.628 1298.812 1301.825 1305.847 1310.606 1315.190 1318.311 1319.464 1319.511 1319.648 1320.321 1321.404 1322.778 1324.452 1326.398 1328.226 1328.772 1326.523 1321.176 1314.206 1307.491 1302.532 1300.938 1303.742 1309.797 1316.234 1320.863 1323.444 1324.840 1325.803 1326.642 1327.430 1328.174 1328.874 1329.561 1330.292 1331.158 1332.315 1333.949 1336.146 1338.834 1341.864 1345.129 1348.600 1352.293 1356.340 1361.108 1366.975 1373.846 1381.051 1387.803 1393.743 1399.111 1404.409 1409.934 1415.605 1421.021 1425.594 1428.858 1430.764 1431.599 1431.665 1431.130 1430.129 1428.841 1427.447 1426.075 1424.791 1423.579 1422.378 1421.139 1419.812 1418.274 1416.319 1413.759 1410.535 1406.797 1403.065 1400.182 1398.752 1398.746 1399.844 1401.914 1404.944 1408.577 1411.703 1412.598 1410.179 1405.536 1401.303 1398.990 1397.881 1396.501 1393.938 1390.024 1385.695 1383.111 1384.014 1388.063 1393.494 1398.804 1403.326 1406.958 1409.928 1412.675 1415.597 1418.661 1421.206 1422.496 1422.653 1422.554 1422.638 1422.862 1423.969 1427.132 1431.928 1436.481 1439.952 1443.154 1446.635 1449.616 1451.043 1451.027 1450.801 1451.359 1452.777 1454.747 1457.075 1459.600 1461.953 1463.927 1466.129 1469.332 1473.307 1477.426 1481.715 1486.400 1491.355 1496.265 1500.726 1504.352 1507.078 1509.337 1511.811 1514.920 1518.760 1523.369 1528.544 1533.805 1538.916 1543.884 1548.270 1550.977
1310.277 1311.450 1312.114 1310.424 1305.762 1299.652 1295.078 1293.195 1291.723 1288.307 1283.599 1279.665 1277.385 1276.338 1275.829 1275.425 1275.054 1274.828 1274.758 1274.772 1274.892 1275.136 1275.361 1275.422 1275.382 1275.418 1275.598 1275.878 1276.177 1276.408 1276.561 1276.716 1276.904 1277.064 1277.139 1277.117 1276.992 1276.782 1276.671 1277.111 1278.518 1280.727 1283.068 1285.122 1287.028 1288.996 1290.904 1292.529 1293.992 1295.778 1298.404 1302.167 1306.881 1311.593 1314.963 1316.447 1316.804 1317.094 1317.780 1318.933 1320.612 1322.789 1325.220 1327.243 1327.428 1324.130 1317.319 1309.339 1303.157 1300.553 1302.042 1307.020 1313.535 1319.146 1322.616 1324.350 1325.308 1326.070 1326.800 1327.509 1328.171 1328.795 1329.470 1330.298 1331.361 1332.795 1334.764 1337.316 1340.351 1343.715 1347.306 1351.096 1355.124 1359.599 1364.950 1371.513 1379.041 1386.671 1393.468 1399.074 1403.884 1408.587 1413.512 1418.437 1422.895 1426.481 1428.985 1430.423 1430.967 1430.784 1429.995 1428.757 1427.294 1425.800 1424.378 1423.048 1421.755 1420.423 1419.013 1417.489 1415.738 1413.595 1410.978 1407.957 1404.667 1401.345 1398.525 1396.846 1396.531 1397.380 1399.232 1402.101 1405.665 1408.675 1409.249 1406.466 1401.813 1398.003 1396.160 1395.257 1394.029 1391.972 1388.808 1384.862 1381.975 1382.262 1385.869 1391.138 1396.498 1401.268 1405.267 1408.517 1411.285 1413.995 1416.826 1419.344 1420.789 1421.034 1420.868 1420.928 1421.201 1422.184 1425.161 1430.169 1435.274 1439.117 1442.439 1446.131 1449.463 1451.082 1450.926 1450.359 1450.526 1451.391 1452.540 1454.075 1456.269 1458.848 1461.501 1464.801 1469.305 1474.291 1478.707 1482.534 1486.356 1490.491 1494.770 1498.701 1501.983 1504.852 1507.782 1511.046 1514.769 1519.204 1524.551 1530.508 1536.525 1542.398 1548.047 1552.893 1555.807
1313.776 1314.448 1314.725 1313.328 1309.543 1304.196 1299.749 1297.662 1296.295 1293.274 1288.611 1283.978 1280.491 1278.235 1276.826 1275.831 1275.090 1274.696 1274.624 1274.681 1274.772 1274.912 1275.065 1275.169 1275.219 1275.243 1275.267 1275.338 1275.493 1275.722 1276.006 1276.352 1276.709 1276.969 1277.084 1277.074 1276.964 1276.782 1276.671 1276.999 1278.147 1280.043 1282.164 1284.101 1285.864 1287.581 1289.160 1290.423 1291.476 1292.768 1294.868 1298.194 1302.645 1307.312 1310.919 1312.890 1313.768 1314.406 1315.291 1316.693 1318.800 1321.506 1324.323 1326.298 1325.811 1321.316 1313.352 1305.274 1300.795 1301.213 1305.419 1311.405 1317.155 1321.269 1323.550 1324.744 1325.613 1326.434 1327.191 1327.854 1328.434 1329.006 1329.712 1330.681 1331.981 1333.709 1336.001 1338.875 1342.216 1345.887 1349.793 1353.886 1358.245 1363.222 1369.313 1376.677 1384.791 1392.606 1399.172 1404.249 1408.368 1412.292 1416.373 1420.399 1423.967 1426.824 1428.869 1430.094 1430.544 1430.267 1429.333 1427.914 1426.274 1424.648 1423.139 1421.735 1420.355 1418.902 1417.316 1415.553 1413.511 1411.064 1408.245 1405.308 1402.440 1399.611 1396.980 1395.086 1394.332 1394.679 1396.055 1398.573 1401.926 1404.672 1404.801 1401.743 1397.469 1394.512 1393.260 1392.336 1390.915 1389.087 1386.588 1383.229 1380.486 1380.588 1383.942 1389.010 1394.311 1399.296 1403.801 1407.634 1410.720 1413.250 1415.538 1417.614 1419.018 1419.384 1419.162 1419.120 1419.460 1420.366 1422.823 1427.297 1432.386 1436.626 1440.445 1444.688 1448.544 1450.412 1450.148 1449.333 1449.278 1449.809 1450.394 1451.396 1453.389 1456.121 1459.335 1463.715 1469.589 1475.766 1480.876 1484.772 1488.085 1491.351 1494.696 1497.929 1500.986 1504.165 1507.704 1511.515 1515.675 1520.703 1526.875 1533.675 1540.413 1546.895 1553.089 1558.423 1561.661
1316.289 1316.475 1316.322 1315.151 1312.400 1308.309 1304.444 1302.140 1300.652 1298.293 1294.626 1290.314 1286.015 1282.235 1279.297 1277.142 1275.632 1274.809 1274.586 1274.635 1274.711 1274.785 1274.879 1274.968 1275.009 1274.983 1274.909 1274.850 1274.870 1275.020 1275.340 1275.833 1276.390 1276.826 1277.042 1277.077 1277.008 1276.888 1276.835 1277.120 1278.013 1279.493 1281.260 1283.018 1284.657 1286.183 1287.524 1288.539 1289.282 1290.140 1291.681 1294.390 1298.285 1302.681 1306.511 1309.136 1310.767 1312.000 1313.306 1315.066 1317.549 1320.606 1323.554 1325.157 1323.684 1317.984 1309.499 1302.395 1300.360 1303.608 1309.569 1315.490 1319.882 1322.573 1324.159 1325.328 1326.422 1327.437 1328.278 1328.940 1329.503 1330.087 1330.837 1331.884 1333.307 1335.183 1337.616 1340.626 1344.121 1347.995 1352.167 1356.583 1361.379 1367.031 1374.013 1382.184 1390.675 1398.382 1404.557 1409.106 1412.509 1415.463 1418.429 1421.422 1424.220 1426.618 1428.465 1429.661 1430.161 1429.949 1429.043 1427.575 1425.816 1424.045 1422.399 1420.867 1419.367 1417.792 1416.040 1414.033 1411.667 1408.836 1405.681 1402.660 1400.066 1397.683 1395.323 1393.311 1392.075 1391.749 1392.435 1394.358 1397.220 1399.502 1399.269 1396.323 1392.833 1390.849 1389.993 1388.732 1386.837 1385.043 1383.189 1380.708 1378.655 1379.084 1382.453 1387.375 1392.561 1397.640 1402.540 1407.014 1410.683 1413.267 1414.895 1416.069 1416.998 1417.374 1417.188 1417.101 1417.581 1418.577 1420.403 1423.624 1427.860 1432.269 1436.948 1442.174 1446.819 1449.119 1448.906 1447.931 1447.678 1447.954 1448.192 1448.916 1450.835 1453.671 1457.270 1462.510 1469.604 1477.024 1483.192 1487.855 1491.482 1494.507 1497.226 1499.825 1502.515 1505.564 1509.033 1512.804 1517.126 1522.641 1529.512 1537.031 1544.393 1551.350 1557.905 1563.579 1567.078
1318.582 1318.447 1317.990 1316.959 1315.042 1312.196 1309.140 1306.756 1304.988 1303.153 1300.795 1297.540 1293.112 1288.015 1283.280 1279.517 1276.829 1275.238 1274.611 1274.535 1274.602 1274.654 1274.697 1274.738 1274.744 1274.689 1274.591 1274.489 1274.431 1274.476 1274.701 1275.171 1275.846 1276.519 1276.969 1277.144 1277.144 1277.091 1277.112 1277.369 1277.998 1279.026 1280.398 1281.970 1283.528 1284.929 1286.112 1286.994 1287.590 1288.195 1289.304 1291.367 1294.518 1298.406 1302.307 1305.555 1307.993 1309.915 1311.733 1313.852 1316.554 1319.686 1322.465 1323.430 1320.822 1314.114 1305.761 1300.318 1300.736 1305.994 1312.673 1317.999 1321.264 1323.242 1324.857 1326.446 1327.932 1329.186 1330.165 1330.920 1331.567 1332.229 1333.020 1334.052 1335.425 1337.231 1339.576 1342.505 1345.971 1349.908 1354.265 1359.036 1364.452 1371.033 1379.031 1387.856 1396.359 1403.629 1409.291 1413.321 1416.006 1417.947 1419.766 1421.770 1423.934 1426.038 1427.805 1429.021 1429.601 1429.530 1428.797 1427.463 1425.740 1423.913 1422.152 1420.460 1418.767 1416.989 1415.020 1412.759 1410.087 1406.898 1403.383 1400.138 1397.578 1395.457 1393.381 1391.383 1389.746 1388.735 1388.673 1389.873 1392.032 1393.741 1393.362 1390.913 1388.314 1386.983 1386.093 1384.271 1381.854 1380.054 1378.866 1377.548 1376.682 1377.848 1381.409 1386.245 1391.347 1396.456 1401.549 1406.448 1410.706 1413.629 1414.841 1414.946 1414.917 1414.949 1414.784 1414.771 1415.509 1416.831 1418.229 1419.942 1422.692 1426.849 1432.394 1438.767 1444.352 1447.267 1447.301 1446.263 1445.799 1445.841 1445.873 1446.453 1448.328 1451.210 1454.970 1460.647 1468.591 1477.193 1484.683 1490.610 1495.221 1498.809 1501.695 1504.106 1506.246 1508.495 1511.211 1514.577 1518.921 1524.739 1532.043 1540.103 1548.068 1555.515 1562.310 1568.024 1571.505
1322.188 1321.687 1320.786 1319.602 1318.102 1316.129 1313.754 1311.370 1309.334 1307.754 1306.332 1304.084 1299.974 1294.177 1288.015 1282.697 1278.719 1276.164 1274.889 1274.492 1274.472 1274.503 1274.508 1274.512 1274.504 1274.451 1274.357 1274.253 1274.177 1274.167 1274.271 1274.582 1275.186 1275.998 1276.744 1277.194 1277.347 1277.365 1277.424 1277.633 1278.036 1278.699 1279.731 1281.114 1282.594 1283.913 1284.993 1285.825 1286.421 1286.972 1287.847 1289.408 1291.831 1295.051 1298.730 1302.323 1305.395 1307.918 1310.198 1312.612 1315.375 1318.315 1320.630 1320.786 1317.158 1309.891 1302.209 1298.564 1300.892 1307.237 1313.957 1318.710 1321.522 1323.617 1325.775 1327.921 1329.774 1331.255 1332.407 1333.313 1334.096 1334.884 1335.766 1336.809 1338.092 1339.733 1341.874 1344.610 1347.948 1351.869 1356.362 1361.509 1367.691 1375.394 1384.438 1393.648 1401.717 1408.151 1413.038 1416.415 1418.402 1419.531 1420.492 1421.746 1423.404 1425.265 1426.948 1428.133 1428.718 1428.729 1428.182 1427.095 1425.591 1423.891 1422.147 1420.357 1418.450 1416.376 1414.088 1411.515 1408.552 1405.099 1401.313 1397.762 1394.945 1392.801 1390.964 1389.192 1387.449 1385.987 1385.311 1385.809 1387.223 1388.401 1388.050 1386.159 1384.143 1382.928 1381.681 1379.411 1376.793 1375.170 1374.670 1374.605 1375.127 1377.140 1380.844 1385.524 1390.524 1395.631 1400.767 1405.809 1410.430 1413.806 1415.035 1414.352 1413.163 1412.427 1412.063 1412.129 1413.177 1415.034 1416.509 1417.152 1418.317 1421.697 1427.592 1434.800 1441.217 1444.791 1445.181 1444.173 1443.564 1443.476 1443.442 1443.936 1445.701 1448.501 1452.147 1457.765 1466.078 1475.676 1484.547 1491.816 1497.463 1501.855 1505.484 1508.357 1510.241 1511.592 1513.409 1516.370 1520.732 1526.680 1534.152 1542.594 1551.208 1559.327 1566.439 1571.992 1575.163
1328.389 1327.355 1325.741 1324.056 1322.495 1320.793 1318.542 1315.820 1313.316 1311.637 1310.557 1308.866 1305.223 1299.451 1292.701 1286.378 1281.328 1277.806 1275.721 1274.757 1274.456 1274.395 1274.370 1274.352 1274.329 1274.268 1274.171 1274.076 1274.016 1274.009 1274.062 1274.230 1274.654 1275.410 1276.326 1277.086 1277.513 1277.673 1277.755 1277.899 1278.160 1278.608 1279.380 1280.528 1281.865 1283.104 1284.132 1284.974 1285.659 1286.285 1287.096 1288.351 1290.197 1292.708 1295.889 1299.488 1302.976 1305.982 1308.608 1311.166 1313.791 1316.269 1317.831 1317.065 1312.732 1305.584 1299.084 1297.094 1300.650 1307.380 1313.860 1318.324 1321.289 1323.966 1326.733 1329.262 1331.329 1332.977 1334.290 1335.350 1336.289 1337.255 1338.331 1339.524 1340.855 1342.442 1344.465 1347.061 1350.302 1354.238 1358.906 1364.477 1371.455 1380.213 1390.055 1399.263 1406.479 1411.671 1415.445 1418.036 1419.487 1420.172 1420.673 1421.449 1422.713 1424.339 1425.913 1427.023 1427.526 1427.489 1427.004 1426.119 1424.898 1423.448 1421.848 1420.072 1418.043 1415.729 1413.128 1410.219 1406.970 1403.333 1399.382 1395.495 1392.179 1389.690 1387.928 1386.526 1385.101 1383.683 1382.729 1382.661 1383.408 1384.170 1383.879 1382.306 1380.390 1378.882 1377.282 1374.989 1372.706 1371.592 1371.832 1372.903 1374.643 1377.307 1380.939 1385.250 1389.965 1394.934 1400.008 1405.042 1409.803 1413.564 1415.151 1414.212 1412.040 1410.244 1409.301 1409.231 1410.492 1412.990 1415.140 1415.592 1415.542 1417.673 1423.093 1430.489 1437.382 1441.494 1442.286 1441.446 1440.877 1440.860 1440.920 1441.347 1442.830 1445.271 1448.521 1453.785 1462.165 1472.514 1482.526 1490.780 1497.024 1501.950 1506.489 1510.438 1512.808 1513.778 1514.937 1517.612 1522.069 1528.123 1535.614 1544.248 1553.464 1562.438 1570.134 1575.633 1578.453
1337.454 1335.871 1333.504 1331.168 1329.136 1327.020 1324.105 1320.330 1316.731 1314.384 1313.168 1311.768 1308.741 1303.637 1297.175 1290.546 1284.755 1280.337 1277.352 1275.585 1274.712 1274.364 1274.250 1274.211 1274.168 1274.088 1273.989 1273.910 1273.874 1273.890 1273.952 1274.076 1274.371 1274.972 1275.848 1276.773 1277.506 1277.934 1278.118 1278.226 1278.406 1278.746 1279.329 1280.217 1281.327 1282.457 1283.481 1284.399 1285.213 1285.943 1286.743 1287.807 1289.229 1291.104 1293.669 1297.046 1300.803 1304.236 1307.085 1309.551 1311.764 1313.496 1314.037 1312.296 1307.657 1301.361 1296.567 1296.187 1300.544 1307.267 1313.413 1317.784 1321.115 1324.318 1327.396 1330.014 1332.134 1333.886 1335.342 1336.574 1337.722 1338.936 1340.288 1341.750 1343.315 1345.088 1347.224 1349.870 1353.169 1357.239 1362.155 1368.164 1375.787 1385.161 1395.189 1403.912 1410.036 1413.835 1416.359 1418.188 1419.346 1419.922 1420.255 1420.748 1421.696 1423.089 1424.550 1425.605 1426.036 1425.902 1425.354 1424.515 1423.458 1422.213 1420.769 1419.074 1417.076 1414.741 1412.022 1408.908 1405.464 1401.732 1397.692 1393.486 1389.568 1386.482 1384.475 1383.281 1382.375 1381.482 1380.712 1380.374 1380.652 1381.106 1380.772 1379.195 1377.025 1375.101 1373.368 1371.508 1370.020 1369.732 1370.778 1372.748 1375.310 1378.324 1381.722 1385.498 1389.693 1394.293 1399.177 1404.154 1408.973 1413.022 1415.110 1414.379 1411.626 1408.718 1406.797 1406.193 1407.414 1410.502 1413.723 1414.828 1414.187 1414.893 1419.130 1426.036 1432.964 1437.409 1438.620 1438.104 1437.768 1438.004 1438.272 1438.589 1439.529 1441.295 1444.096 1449.204 1457.711 1468.496 1479.041 1487.587 1493.899 1499.148 1504.685 1510.077 1513.522 1514.659 1515.435 1517.920 1522.580 1528.872 1536.390 1545.056 1554.693 1564.505 1572.984 1578.737 1581.429
1348.711 1346.771 1343.881 1340.978 1338.264 1335.201 1330.935 1325.406 1320.001 1316.356 1314.642 1313.477 1311.256 1307.257 1301.697 1295.321 1289.112 1283.887 1279.943 1277.189 1275.449 1274.521 1274.141 1274.035 1273.988 1273.911 1273.824 1273.761 1273.743 1273.780 1273.874 1274.032 1274.304 1274.786 1275.511 1276.404 1277.322 1278.068 1278.490 1278.652 1278.775 1279.027 1279.472 1280.133 1280.995 1281.978 1283.011 1284.056 1285.025 1285.841 1286.592 1287.468 1288.556 1289.926 1291.904 1294.916 1298.781 1302.583 1305.577 1307.725 1309.206 1309.879 1309.224 1306.649 1302.225 1297.434 1294.786 1296.118 1301.145 1307.660 1313.358 1317.611 1321.171 1324.526 1327.484 1329.923 1332.010 1333.869 1335.514 1336.993 1338.422 1339.927 1341.563 1343.342 1345.305 1347.522 1350.045 1352.989 1356.556 1360.884 1366.058 1372.381 1380.269 1389.535 1398.936 1406.717 1411.790 1414.461 1415.934 1417.105 1418.075 1418.682 1419.008 1419.374 1420.101 1421.261 1422.572 1423.600 1424.069 1423.947 1423.348 1422.436 1421.356 1420.164 1418.816 1417.241 1415.403 1413.251 1410.660 1407.580 1404.142 1400.441 1396.368 1391.895 1387.435 1383.708 1381.207 1379.860 1379.247 1378.943 1378.679 1378.513 1378.695 1378.973 1378.452 1376.596 1373.998 1371.693 1370.034 1368.894 1368.516 1369.314 1371.210 1373.789 1376.737 1379.860 1383.033 1386.303 1389.865 1393.890 1398.395 1403.220 1408.060 1412.338 1414.946 1414.731 1411.867 1408.036 1404.875 1403.297 1404.104 1407.522 1411.829 1414.118 1413.628 1413.159 1415.839 1421.739 1428.358 1432.971 1434.573 1434.429 1434.376 1434.903 1435.408 1435.578 1435.854 1436.943 1439.668 1445.138 1453.850 1464.505 1474.716 1482.845 1488.975 1494.663 1501.289 1508.054 1512.602 1514.133 1514.744 1517.124 1522.059 1528.743 1536.437 1545.131 1555.005 1565.433 1574.657 1580.907 1583.766
1361.217 1359.109 1355.907 1352.565 1349.172 1344.951 1338.949 1331.280 1323.733 1318.449 1315.935 1314.817 1313.342 1310.542 1306.177 1300.494 1294.262 1288.419 1283.501 1279.631 1276.828 1275.067 1274.191 1273.892 1273.824 1273.776 1273.712 1273.663 1273.656 1273.710 1273.846 1274.074 1274.393 1274.832 1275.431 1276.210 1277.150 1278.106 1278.809 1279.133 1279.243 1279.391 1279.702 1280.190 1280.846 1281.664 1282.659 1283.816 1284.970 1285.891 1286.582 1287.256 1288.060 1289.051 1290.517 1293.028 1296.719 1300.701 1303.763 1305.428 1305.874 1305.254 1303.505 1300.618 1297.097 1294.310 1294.011 1297.063 1302.600 1308.631 1313.664 1317.688 1321.293 1324.500 1327.074 1329.210 1331.239 1333.228 1335.114 1336.889 1338.614 1340.375 1342.255 1344.379 1346.901 1349.828 1353.025 1356.497 1360.447 1365.005 1370.295 1376.656 1384.291 1392.708 1400.785 1407.298 1411.468 1413.433 1414.205 1414.811 1415.536 1416.145 1416.535 1416.930 1417.601 1418.596 1419.722 1420.704 1421.310 1421.390 1420.911 1419.983 1418.817 1417.570 1416.254 1414.795 1413.151 1411.260 1408.957 1406.138 1402.896 1399.303 1395.211 1390.541 1385.714 1381.541 1378.606 1376.937 1376.251 1376.205 1376.438 1376.785 1377.274 1377.556 1376.764 1374.443 1371.334 1368.724 1367.280 1367.022 1367.946 1369.977 1372.691 1375.636 1378.672 1381.777 1384.829 1387.759 1390.735 1394.059 1397.953 1402.399 1407.107 1411.513 1414.608 1415.117 1412.608 1408.227 1403.821 1400.965 1400.944 1404.226 1409.273 1412.912 1413.259 1412.153 1413.225 1417.797 1423.903 1428.605 1430.549 1430.711 1430.853 1431.590 1432.315 1432.434 1432.267 1433.035 1436.086 1442.093 1450.705 1460.558 1469.799 1477.261 1483.384 1489.768 1497.373 1505.026 1510.252 1512.123 1512.746 1515.134 1520.344 1527.470 1535.509 1544.367 1554.383 1565.148 1574.951 1581.829 1585.087
1374.346 1372.024 1368.414 1364.564 1360.506 1355.176 1347.477 1337.786 1328.302 1321.440 1317.887 1316.386 1315.205 1313.274 1310.087 1305.458 1299.732 1293.645 1287.847 1282.781 1278.801 1276.083 1274.542 1273.891 1273.726 1273.702 1273.672 1273.638 1273.637 1273.706 1273.887 1274.189 1274.575 1275.031 1275.597 1276.305 1277.175 1278.156 1279.031 1279.555 1279.739 1279.814 1279.987 1280.325 1280.821 1281.472 1282.352 1283.547 1284.893 1285.995 1286.693 1287.209 1287.786 1288.494 1289.525 1291.425 1294.581 1298.343 1301.237 1302.297 1301.664 1299.972 1297.726 1295.288 1293.218 1292.569 1294.456 1298.928 1304.592 1309.800 1314.038 1317.801 1321.378 1324.413 1326.714 1328.659 1330.630 1332.675 1334.722 1336.722 1338.673 1340.645 1342.774 1345.308 1348.504 1352.323 1356.415 1360.541 1364.756 1369.222 1374.247 1380.226 1387.108 1394.192 1400.611 1405.685 1408.939 1410.353 1410.642 1410.802 1411.269 1411.842 1412.316 1412.830 1413.591 1414.561 1415.575 1416.538 1417.355 1417.822 1417.726 1417.045 1415.967 1414.716 1413.382 1411.946 1410.411 1408.765 1406.852 1404.469 1401.541 1398.046 1393.882 1389.065 1384.072 1379.737 1376.641 1374.787 1373.922 1373.849 1374.361 1375.220 1376.144 1376.533 1375.471 1372.644 1369.070 1366.319 1365.262 1365.977 1368.185 1371.320 1374.682 1377.873 1380.936 1384.025 1387.075 1389.890 1392.463 1395.090 1398.172 1401.918 1406.183 1410.486 1413.941 1415.241 1413.432 1408.982 1403.647 1399.496 1398.316 1400.931 1406.192 1411.019 1412.628 1411.500 1411.174 1414.225 1419.598 1424.302 1426.555 1426.985 1427.255 1428.124 1429.071 1429.344 1429.117 1429.838 1433.103 1439.228 1447.318 1456.119 1464.388 1471.448 1477.889 1484.997 1493.187 1501.110 1506.478 1508.473 1509.214 1511.790 1517.312 1524.852 1533.320 1542.491 1552.644 1563.535 1573.746 1581.316 1585.129
1387.751 1384.935 1380.570 1375.932 1371.069 1364.743 1355.765 1344.667 1333.818 1325.662 1320.989 1318.768 1317.363 1315.701 1313.291 1309.775 1304.988 1299.138 1292.725 1286.489 1281.247 1277.472 1275.163 1274.050 1273.708 1273.678 1273.682 1273.664 1273.669 1273.752 1273.967 1274.319 1274.755 1275.264 1275.883 1276.597 1277.383 1278.275 1279.188 1279.868 1280.179 1280.256 1280.331 1280.538 1280.895 1281.384 1282.097 1283.238 1284.740 1286.084 1286.885 1287.318 1287.729 1288.238 1288.933 1290.218 1292.560 1295.590 1297.903 1298.346 1297.103 1295.151 1293.249 1291.770 1291.180 1292.333 1295.865 1301.142 1306.493 1310.869 1314.571 1318.204 1321.708 1324.640 1326.929 1328.922 1330.901 1332.936 1335.028 1337.149 1339.287 1341.524 1344.026 1347.058 1350.886 1355.464 1360.327 1364.937 1369.065 1372.930 1377.145 1382.223 1387.970 1393.615 1398.458 1402.095 1404.262 1404.966 1404.803 1404.669 1404.989 1405.557 1406.111 1406.725 1407.558 1408.550 1409.566 1410.624 1411.739 1412.715 1413.239 1413.141 1412.507 1411.516 1410.259 1408.796 1407.276 1405.838 1404.380 1402.556 1400.022 1396.604 1392.300 1387.338 1382.309 1378.017 1374.983 1373.156 1372.245 1372.120 1372.724 1373.839 1375.009 1375.432 1374.130 1370.933 1367.134 1364.507 1364.016 1365.681 1368.915 1372.793 1376.562 1379.970 1383.135 1386.264 1389.391 1392.302 1394.781 1396.931 1399.186 1401.983 1405.440 1409.293 1412.826 1414.770 1413.808 1409.760 1404.036 1398.859 1396.394 1397.941 1402.915 1408.573 1411.570 1410.985 1409.645 1411.003 1415.247 1419.724 1422.262 1423.011 1423.453 1424.463 1425.674 1426.290 1426.278 1426.940 1429.951 1435.689 1443.170 1451.184 1458.817 1465.733 1472.507 1480.018 1488.302 1496.002 1501.060 1502.923 1503.888 1506.954 1512.983 1520.959 1529.861 1539.429 1549.758 1560.644 1571.062 1579.242 1583.642
1400.953 1397.432 1392.074 1386.428 1380.559 1373.269 1363.462 1351.636 1339.964 1330.807 1325.206 1322.423 1320.741 1318.915 1316.629 1313.741 1309.834 1304.523 1297.883 1290.701 1284.184 1279.207 1275.994 1274.337 1273.756 1273.667 1273.680 1273.684 1273.707 1273.807 1274.033 1274.380 1274.815 1275.362 1276.060 1276.830 1277.590 1278.420 1279.351 1280.134 1280.537 1280.649 1280.698 1280.824 1281.071 1281.432 1281.986 1283.007 1284.563 1286.121 1287.084 1287.502 1287.797 1288.167 1288.637 1289.425 1290.892 1292.862 1294.311 1294.352 1293.235 1291.836 1290.727 1290.188 1290.744 1293.168 1297.609 1302.959 1307.802 1311.835 1315.605 1319.314 1322.661 1325.446 1327.812 1330.015 1332.186 1334.365 1336.593 1338.889 1341.299 1343.947 1346.984 1350.566 1354.832 1359.713 1364.748 1369.248 1372.792 1375.656 1378.659 1382.434 1386.849 1391.203 1394.778 1397.137 1398.130 1397.991 1397.405 1397.125 1397.409 1398.006 1398.651 1399.327 1400.112 1400.998 1401.980 1403.135 1404.488 1405.873 1406.990 1407.611 1407.706 1407.325 1406.475 1405.221 1403.827 1402.620 1401.626 1400.404 1398.331 1395.045 1390.613 1385.492 1380.436 1376.252 1373.376 1371.687 1370.852 1370.738 1371.351 1372.522 1373.730 1374.056 1372.538 1369.185 1365.455 1363.179 1363.329 1365.799 1369.715 1373.989 1377.984 1381.593 1384.905 1388.080 1391.260 1394.341 1397.003 1399.080 1400.804 1402.661 1405.066 1408.107 1411.346 1413.648 1413.516 1410.219 1404.632 1398.821 1395.164 1395.449 1399.728 1405.749 1409.973 1410.301 1408.401 1408.044 1410.783 1414.739 1417.477 1418.574 1419.244 1420.449 1421.995 1423.116 1423.513 1424.098 1426.549 1431.662 1438.652 1446.168 1453.303 1459.946 1466.711 1474.213 1482.236 1489.381 1493.817 1495.470 1496.921 1500.873 1507.676 1516.142 1525.432 1535.378 1545.887 1556.680 1567.073 1575.592 1580.417
1413.569 1409.341 1402.968 1396.226 1389.212 1380.931 1370.500 1358.256 1345.998 1336.040 1329.873 1327.111 1325.725 1323.932 1321.407 1318.417 1314.743 1309.768 1303.143 1295.373 1287.726 1281.443 1277.150 1274.819 1273.895 1273.657 1273.633 1273.659 1273.719 1273.843 1274.057 1274.347 1274.708 1275.202 1275.901 1276.731 1277.566 1278.467 1279.488 1280.354 1280.789 1280.928 1281.023 1281.148 1281.338 1281.626 1282.083 1282.966 1284.442 1286.076 1287.178 1287.633 1287.857 1288.126 1288.454 1288.907 1289.670 1290.669 1291.366 1291.329 1290.755 1290.103 1289.658 1289.789 1291.203 1294.454 1299.127 1304.024 1308.457 1312.709 1316.991 1320.888 1324.071 1326.729 1329.222 1331.759 1334.376 1337.027 1339.680 1342.355 1345.166 1348.311 1351.923 1355.996 1360.469 1365.183 1369.702 1373.395 1375.920 1377.622 1379.317 1381.650 1384.667 1387.838 1390.372 1391.664 1391.647 1390.826 1389.975 1389.653 1389.922 1390.546 1391.307 1392.087 1392.812 1393.505 1394.318 1395.383 1396.684 1398.083 1399.399 1400.461 1401.175 1401.483 1401.319 1400.673 1399.748 1398.938 1398.430 1397.804 1396.264 1393.271 1388.877 1383.654 1378.529 1374.428 1371.748 1370.247 1369.518 1369.427 1370.043 1371.257 1372.496 1372.744 1371.095 1367.731 1364.178 1362.276 1362.986 1366.046 1370.372 1374.866 1379.019 1382.778 1386.176 1389.344 1392.501 1395.671 1398.582 1400.909 1402.558 1403.795 1405.173 1407.185 1409.793 1412.142 1412.726 1410.361 1405.286 1399.217 1394.585 1393.553 1396.771 1402.558 1407.482 1408.669 1406.652 1405.047 1406.429 1409.756 1412.506 1413.797 1414.635 1416.047 1417.990 1419.756 1420.770 1421.420 1423.281 1427.654 1434.091 1441.071 1447.557 1453.621 1460.026 1467.266 1474.848 1481.243 1485.002 1486.707 1489.080 1494.233 1501.902 1510.806 1520.352 1530.522 1541.124 1551.800 1562.039 1570.581 1575.532
1425.978 1420.919 1413.293 1405.193 1396.881 1387.588 1376.562 1363.933 1351.159 1340.552 1334.085 1331.823 1331.507 1330.584 1328.246 1324.890 1320.706 1315.387 1308.574 1300.421 1291.887 1284.339 1278.829 1275.620 1274.177 1273.682 1273.570 1273.601 1273.695 1273.839 1274.033 1274.257 1274.501 1274.836 1275.403 1276.233 1277.212 1278.294 1279.440 1280.363 1280.829 1281.039 1281.253 1281.464 1281.653 1281.904 1282.321 1283.098 1284.398 1285.931 1287.068 1287.575 1287.778 1287.984 1288.228 1288.498 1288.851 1289.264 1289.560 1289.614 1289.496 1289.306 1289.238 1289.884 1292.012 1295.738 1300.191 1304.442 1308.544 1313.033 1317.719 1321.834 1325.120 1327.976 1330.831 1333.894 1337.202 1340.628 1343.987 1347.209 1350.448 1353.999 1358.015 1362.376 1366.849 1371.156 1374.864 1377.510 1378.956 1379.578 1380.045 1380.947 1382.508 1384.415 1385.905 1386.300 1385.596 1384.422 1383.485 1383.131 1383.337 1383.947 1384.819 1385.766 1386.569 1387.199 1387.872 1388.747 1389.764 1390.820 1391.888 1392.909 1393.779 1394.413 1394.765 1394.791 1394.540 1394.286 1394.273 1394.190 1393.236 1390.780 1386.763 1381.692 1376.586 1372.571 1370.117 1368.860 1368.272 1368.219 1368.855 1370.152 1371.518 1371.873 1370.327 1367.074 1363.618 1361.863 1362.848 1366.237 1370.854 1375.618 1380.006 1383.861 1387.185 1390.205 1393.246 1396.391 1399.433 1402.055 1403.950 1405.037 1405.732 1406.752 1408.505 1410.580 1411.668 1410.270 1405.966 1399.977 1394.627 1392.295 1394.147 1399.090 1403.945 1405.525 1403.717 1401.818 1402.657 1405.537 1408.001 1409.127 1409.935 1411.490 1413.819 1416.262 1417.997 1418.873 1420.236 1423.761 1429.382 1435.552 1441.170 1446.470 1452.367 1459.244 1466.307 1471.983 1475.350 1477.589 1481.245 1487.646 1496.029 1505.184 1514.762 1524.894 1535.465 1546.115 1556.264 1564.629 1569.423
1439.084 1432.655 1423.034 1413.012 1403.137 1392.745 1381.106 1368.180 1355.118 1344.081 1337.334 1335.538 1336.636 1337.463 1336.314 1333.148 1328.310 1322.022 1314.445 1305.758 1296.517 1287.881 1281.118 1276.815 1274.633 1273.766 1273.524 1273.531 1273.627 1273.765 1273.940 1274.124 1274.274 1274.445 1274.835 1275.615 1276.727 1277.977 1279.173 1280.086 1280.618 1280.984 1281.377 1281.719 1281.947 1282.175 1282.561 1283.261 1284.376 1285.700 1286.748 1287.272 1287.495 1287.693 1287.911 1288.111 1288.302 1288.492 1288.656 1288.784 1288.857 1288.860 1289.079 1290.263 1292.981 1296.862 1300.883 1304.479 1308.037 1312.149 1316.695 1321.042 1324.898 1328.458 1331.994 1335.752 1339.883 1344.219 1348.378 1352.148 1355.706 1359.452 1363.599 1368.000 1372.329 1376.205 1379.228 1381.126 1381.900 1381.807 1381.292 1380.889 1380.980 1381.487 1381.812 1381.373 1380.210 1378.877 1377.886 1377.439 1377.520 1378.058 1378.968 1380.061 1381.062 1381.861 1382.611 1383.430 1384.234 1384.962 1385.697 1386.465 1387.152 1387.669 1388.043 1388.306 1388.448 1388.569 1388.830 1389.041 1388.575 1386.833 1383.590 1379.116 1374.352 1370.575 1368.419 1367.500 1367.169 1367.233 1367.891 1369.210 1370.684 1371.306 1370.181 1367.314 1363.957 1362.020 1362.795 1366.185 1371.121 1376.446 1381.344 1385.345 1388.415 1391.020 1393.734 1396.716 1399.741 1402.514 1404.714 1406.039 1406.556 1406.865 1407.698 1409.205 1410.477 1409.931 1406.563 1400.972 1395.189 1391.669 1392.007 1395.697 1399.873 1401.364 1399.982 1398.756 1399.989 1402.639 1404.458 1404.999 1405.528 1407.084 1409.668 1412.646 1415.012 1416.170 1417.199 1419.919 1424.528 1429.616 1434.206 1438.700 1444.062 1450.529 1457.111 1462.342 1465.791 1468.934 1473.896 1481.309 1490.150 1499.348 1508.716 1518.576 1529.066 1539.847 1550.017 1558.087 1562.533
1453.120 1444.591 1432.095 1419.584 1407.891 1396.287 1384.070 1371.116 1358.177 1346.970 1339.779 1337.928 1340.057 1342.843 1343.664 1341.643 1336.791 1329.555 1320.788 1311.242 1301.378 1291.929 1284.018 1278.471 1275.316 1273.924 1273.495 1273.453 1273.521 1273.622 1273.763 1273.923 1274.044 1274.161 1274.494 1275.281 1276.480 1277.783 1278.907 1279.741 1280.338 1280.872 1281.424 1281.876 1282.156 1282.371 1282.709 1283.325 1284.277 1285.388 1286.292 1286.801 1287.075 1287.314 1287.541 1287.717 1287.855 1287.984 1288.123 1288.278 1288.406 1288.549 1289.148 1290.922 1294.060 1297.868 1301.443 1304.417 1307.101 1310.139 1313.919 1318.302 1322.921 1327.495 1331.938 1336.483 1341.413 1346.546 1351.327 1355.456 1359.186 1362.998 1367.130 1371.454 1375.622 1379.185 1381.798 1383.384 1384.014 1383.745 1382.737 1381.393 1380.190 1379.270 1378.316 1376.986 1375.366 1373.846 1372.739 1372.161 1372.110 1372.545 1373.406 1374.547 1375.734 1376.808 1377.784 1378.701 1379.494 1380.161 1380.820 1381.504 1382.062 1382.366 1382.475 1382.528 1382.567 1382.601 1382.687 1382.743 1382.410 1381.235 1378.862 1375.289 1371.248 1368.018 1366.379 1366.019 1366.168 1366.481 1367.143 1368.339 1369.765 1370.636 1370.152 1368.065 1365.091 1362.819 1362.867 1365.836 1371.086 1377.302 1383.087 1387.436 1390.200 1392.145 1394.240 1396.854 1399.725 1402.488 1404.885 1406.602 1407.368 1407.390 1407.448 1408.197 1409.287 1409.313 1406.898 1401.989 1396.135 1391.665 1390.501 1392.763 1396.026 1397.290 1396.503 1396.429 1398.454 1400.884 1401.809 1401.515 1401.574 1402.941 1405.564 1408.832 1411.611 1413.034 1413.980 1416.197 1419.882 1423.801 1427.310 1431.020 1435.847 1441.870 1448.068 1453.195 1457.116 1461.240 1467.196 1475.216 1484.269 1493.373 1502.399 1511.908 1522.338 1533.267 1543.372 1551.014 1555.036
1466.769 1455.811 1440.040 1424.828 1411.313 1398.608 1386.028 1373.371 1360.897 1349.705 1341.878 1339.288 1341.502 1345.553 1348.281 1347.995 1344.053 1336.594 1326.870 1316.462 1306.170 1296.295 1287.492 1280.669 1276.326 1274.196 1273.478 1273.368 1273.404 1273.456 1273.557 1273.716 1273.883 1274.090 1274.541 1275.430 1276.659 1277.881 1278.854 1279.583 1280.199 1280.819 1281.436 1281.931 1282.246 1282.470 1282.759 1283.263 1284.049 1284.982 1285.781 1286.302 1286.651 1286.945 1287.173 1287.312 1287.401 1287.498 1287.638 1287.813 1288.004 1288.397 1289.536 1291.891 1295.261 1298.894 1302.096 1304.507 1306.241 1307.986 1310.600 1314.471 1319.364 1324.699 1330.026 1335.398 1341.048 1346.732 1351.830 1356.107 1359.961 1363.907 1368.112 1372.426 1376.516 1379.935 1382.395 1383.961 1384.767 1384.726 1383.720 1381.918 1379.741 1377.502 1375.238 1372.945 1370.796 1369.035 1367.806 1367.143 1367.012 1367.359 1368.125 1369.224 1370.498 1371.762 1372.911 1373.913 1374.774 1375.565 1376.392 1377.228 1377.880 1378.182 1378.166 1377.997 1377.761 1377.452 1377.088 1376.665 1376.033 1374.901 1372.930 1370.008 1366.716 1364.255 1363.485 1364.113 1365.121 1365.881 1366.557 1367.527 1368.749 1369.726 1369.883 1368.859 1366.696 1364.258 1363.295 1365.379 1370.671 1377.812 1384.697 1389.618 1392.223 1393.518 1394.863 1396.928 1399.520 1402.178 1404.650 1406.711 1407.936 1408.090 1407.693 1407.670 1408.262 1408.488 1406.879 1402.842 1397.305 1392.237 1389.706 1390.495 1392.842 1393.994 1393.836 1394.727 1397.292 1399.400 1399.500 1398.446 1397.981 1398.997 1401.452 1404.772 1407.740 1409.382 1410.515 1412.684 1415.804 1418.743 1421.314 1424.370 1428.695 1434.231 1440.068 1445.242 1449.742 1454.665 1461.160 1469.352 1478.403 1487.367 1496.082 1505.300 1515.646 1526.516 1536.283 1543.391 1547.041
1478.007 1465.007 1446.352 1428.711 1413.688 1400.263 1387.624 1375.421 1363.501 1352.410 1343.890 1340.037 1341.248 1345.301 1349.054 1350.314 1347.788 1341.026 1331.217 1320.571 1310.382 1300.627 1291.336 1283.361 1277.713 1274.646 1273.507 1273.299 1273.314 1273.339 1273.450 1273.699 1274.023 1274.421 1275.054 1276.023 1277.166 1278.194 1278.985 1279.616 1280.206 1280.817 1281.414 1281.896 1282.229 1282.479 1282.746 1283.141 1283.753 1284.533 1285.284 1285.862 1286.293 1286.620 1286.819 1286.897 1286.933 1287.005 1287.151 1287.356 1287.678 1288.486 1290.315 1293.255 1296.776 1300.193 1303.008 1304.886 1305.871 1306.620 1308.079 1310.908 1315.175 1320.432 1326.143 1332.130 1338.367 1344.434 1349.722 1354.145 1358.228 1362.472 1366.936 1371.382 1375.483 1378.881 1381.383 1383.116 1384.209 1384.479 1383.630 1381.623 1378.746 1375.408 1372.006 1368.894 1366.328 1364.419 1363.166 1362.509 1362.364 1362.650 1363.320 1364.334 1365.594 1366.914 1368.113 1369.120 1369.995 1370.875 1371.848 1372.836 1373.655 1374.155 1374.320 1374.239 1373.970 1373.501 1372.837 1371.978 1370.834 1369.216 1366.911 1363.932 1360.890 1359.008 1359.262 1361.309 1363.666 1365.203 1366.027 1366.806 1367.805 1368.769 1369.386 1369.382 1368.263 1365.985 1364.082 1364.977 1369.848 1377.563 1385.445 1391.071 1393.800 1394.726 1395.435 1396.888 1399.109 1401.642 1404.158 1406.471 1408.164 1408.714 1408.221 1407.571 1407.492 1407.577 1406.530 1403.390 1398.455 1393.180 1389.562 1388.935 1390.373 1391.458 1391.729 1393.018 1395.642 1397.441 1397.053 1395.515 1394.596 1395.193 1397.363 1400.591 1403.606 1405.418 1406.882 1409.339 1412.331 1414.726 1416.738 1419.409 1423.338 1428.342 1433.699 1438.762 1443.587 1448.928 1455.537 1463.576 1472.465 1481.287 1489.796 1498.803 1508.972 1519.551 1528.814 1535.417 1538.806
1486.104 1471.860 1451.213 1431.753 1415.698 1401.967 1389.460 1377.610 1366.041 1355.001 1345.847 1340.519 1339.907 1342.696 1346.252 1348.246 1346.953 1341.426 1332.537 1322.655 1313.361 1304.365 1295.090 1286.262 1279.386 1275.304 1273.637 1273.279 1273.274 1273.311 1273.520 1273.987 1274.584 1275.210 1275.945 1276.841 1277.755 1278.526 1279.140 1279.674 1280.204 1280.765 1281.320 1281.784 1282.135 1282.419 1282.698 1283.033 1283.503 1284.137 1284.841 1285.478 1285.979 1286.310 1286.455 1286.474 1286.477 1286.541 1286.696 1286.944 1287.455 1288.768 1291.369 1294.990 1298.742 1301.895 1304.164 1305.474 1305.976 1306.193 1306.849 1308.566 1311.634 1315.942 1321.173 1327.108 1333.511 1339.810 1345.361 1350.089 1354.513 1359.129 1363.952 1368.644 1372.847 1376.310 1378.968 1380.962 1382.314 1382.721 1381.839 1379.590 1376.196 1372.143 1368.099 1364.636 1362.006 1360.182 1359.048 1358.480 1358.364 1358.619 1359.213 1360.140 1361.333 1362.624 1363.825 1364.834 1365.694 1366.538 1367.434 1368.326 1369.134 1369.811 1370.304 1370.572 1370.586 1370.312 1369.711 1368.706 1367.149 1364.884 1361.853 1358.270 1354.872 1353.001 1353.880 1357.252 1361.196 1363.910 1365.227 1366.057 1366.986 1367.912 1368.700 1369.306 1369.047 1367.154 1364.685 1364.485 1368.611 1376.408 1384.960 1391.305 1394.464 1395.418 1395.753 1396.629 1398.411 1400.813 1403.423 1405.962 1408.047 1409.071 1408.758 1407.722 1406.951 1406.651 1405.893 1403.530 1399.321 1394.198 1389.890 1388.021 1388.470 1389.308 1389.691 1390.923 1393.336 1394.964 1394.419 1392.633 1391.343 1391.525 1393.401 1396.528 1399.572 1401.512 1403.258 1406.071 1409.251 1411.598 1413.504 1416.070 1419.723 1424.177 1428.883 1433.485 1438.161 1443.462 1449.888 1457.624 1466.262 1474.923 1483.295 1492.139 1502.078 1512.302 1521.118 1527.353 1530.582
1492.181 1477.351 1455.530 1434.862 1418.181 1404.411 1392.113 1380.432 1368.881 1357.660 1347.876 1341.105 1338.341 1339.027 1341.295 1343.022 1342.342 1338.086 1330.783 1322.531 1314.822 1307.096 1298.302 1289.036 1281.190 1276.158 1273.900 1273.315 1273.270 1273.336 1273.659 1274.362 1275.252 1276.081 1276.825 1277.541 1278.191 1278.739 1279.207 1279.634 1280.078 1280.588 1281.126 1281.602 1281.986 1282.316 1282.634 1282.967 1283.354 1283.850 1284.456 1285.092 1285.632 1285.970 1286.080 1286.059 1286.047 1286.121 1286.290 1286.580 1287.270 1289.033 1292.363 1296.724 1300.782 1303.611 1305.219 1305.993 1306.245 1306.296 1306.573 1307.520 1309.463 1312.512 1316.617 1321.696 1327.558 1333.690 1339.417 1344.471 1349.207 1354.116 1359.243 1364.215 1368.626 1372.231 1375.025 1377.161 1378.561 1378.841 1377.720 1375.219 1371.612 1367.454 1363.494 1360.300 1358.017 1356.510 1355.608 1355.177 1355.119 1355.374 1355.929 1356.786 1357.893 1359.118 1360.311 1361.365 1362.253 1363.011 1363.664 1364.223 1364.771 1365.409 1366.109 1366.724 1367.114 1367.199 1366.894 1366.018 1364.321 1361.643 1358.053 1353.917 1350.026 1347.728 1348.423 1352.205 1357.223 1361.215 1363.466 1364.761 1365.840 1366.702 1367.343 1368.024 1368.218 1366.816 1364.341 1363.533 1366.927 1374.434 1383.273 1390.216 1393.984 1395.340 1395.662 1396.121 1397.428 1399.641 1402.357 1405.133 1407.551 1409.043 1409.109 1407.974 1406.622 1405.775 1405.021 1403.243 1399.790 1395.100 1390.517 1387.650 1386.983 1387.228 1387.423 1388.444 1390.658 1392.276 1391.768 1389.852 1388.231 1388.016 1389.617 1392.690 1395.810 1397.834 1399.704 1402.780 1406.315 1408.966 1411.049 1413.624 1417.023 1420.914 1424.863 1428.755 1432.928 1437.889 1443.997 1451.385 1459.704 1468.166 1476.464 1485.255 1495.026 1504.921 1513.350 1519.319 1522.454
1497.800 1482.690 1460.133 1438.611 1421.488 1407.758 1395.685 1384.112 1372.412 1360.803 1350.312 1342.213 1337.364 1335.646 1335.919 1336.533 1335.807 1332.594 1327.119 1320.937 1315.134 1308.884 1300.861 1291.542 1283.048 1277.192 1274.288 1273.376 1273.251 1273.328 1273.686 1274.495 1275.568 1276.547 1277.297 1277.886 1278.375 1278.793 1279.156 1279.481 1279.841 1280.314 1280.862 1281.377 1281.812 1282.196 1282.564 1282.924 1283.279 1283.660 1284.123 1284.666 1285.196 1285.576 1285.728 1285.723 1285.713 1285.786 1285.946 1286.241 1287.026 1289.092 1293.003 1298.006 1302.299 1304.771 1305.788 1306.190 1306.389 1306.500 1306.707 1307.294 1308.522 1310.543 1313.441 1317.274 1322.024 1327.415 1332.899 1338.053 1342.980 1348.031 1353.251 1358.343 1362.908 1366.595 1369.317 1371.247 1372.364 1372.371 1371.096 1368.660 1365.396 1361.845 1358.637 1356.172 1354.485 1353.411 1352.790 1352.522 1352.548 1352.841 1353.396 1354.202 1355.211 1356.338 1357.487 1358.566 1359.488 1360.182 1360.620 1360.860 1361.087 1361.507 1362.160 1362.884 1363.473 1363.801 1363.756 1363.097 1361.498 1358.787 1355.107 1350.911 1346.930 1344.252 1344.135 1347.071 1351.914 1356.596 1359.883 1361.943 1363.296 1364.038 1364.399 1364.924 1365.349 1364.564 1362.655 1361.868 1364.771 1371.804 1380.623 1387.986 1392.394 1394.386 1395.043 1395.347 1396.226 1398.151 1400.880 1403.847 1406.553 1408.498 1409.104 1408.205 1406.528 1405.099 1404.090 1402.649 1399.897 1395.813 1391.302 1387.731 1385.891 1385.175 1384.880 1385.649 1387.763 1389.498 1389.163 1387.221 1385.318 1384.695 1385.970 1388.940 1392.101 1394.131 1395.998 1399.284 1403.282 1406.407 1408.736 1411.262 1414.329 1417.634 1420.858 1424.059 1427.689 1432.241 1437.996 1445.001 1452.933 1461.183 1469.550 1478.506 1488.223 1497.743 1505.705 1511.409 1514.501
1503.873 1488.621 1465.525 1443.254 1425.652 1411.829 1399.859 1388.394 1376.647 1364.711 1353.526 1344.204 1337.475 1333.424 1331.447 1330.456 1329.203 1326.734 1323.009 1318.912 1314.950 1310.095 1302.944 1293.851 1284.971 1278.389 1274.777 1273.441 1273.190 1273.258 1273.595 1274.391 1275.510 1276.564 1277.352 1277.924 1278.364 1278.719 1279.014 1279.276 1279.590 1280.043 1280.611 1281.177 1281.669 1282.095 1282.491 1282.864 1283.198 1283.498 1283.824 1284.232 1284.704 1285.138 1285.415 1285.520 1285.551 1285.601 1285.701 1285.925 1286.684 1288.906 1293.271 1298.808 1303.263 1305.408 1305.954 1306.097 1306.317 1306.586 1306.903 1307.416 1308.292 1309.645 1311.596 1314.286 1317.808 1322.106 1326.891 1331.818 1336.774 1341.794 1346.804 1351.628 1355.980 1359.436 1361.782 1363.203 1363.875 1363.722 1362.670 1360.835 1358.500 1356.072 1353.961 1352.389 1351.346 1350.711 1350.375 1350.285 1350.422 1350.785 1351.365 1352.131 1353.038 1354.039 1355.083 1356.101 1356.993 1357.646 1357.997 1358.107 1358.158 1358.362 1358.803 1359.377 1359.896 1360.224 1360.235 1359.683 1358.250 1355.776 1352.438 1348.695 1345.131 1342.429 1341.431 1342.788 1346.228 1350.472 1354.192 1356.847 1358.460 1359.203 1359.555 1360.164 1360.903 1360.850 1359.858 1359.553 1362.224 1368.727 1377.332 1385.022 1390.106 1392.841 1394.012 1394.360 1394.887 1396.432 1399.017 1402.046 1404.937 1407.268 1408.505 1408.186 1406.606 1404.784 1403.383 1402.004 1399.760 1396.288 1392.074 1388.135 1385.268 1383.400 1382.314 1382.658 1384.625 1386.514 1386.490 1384.706 1382.639 1381.599 1382.410 1385.063 1388.077 1390.009 1391.844 1395.369 1399.901 1403.564 1406.147 1408.574 1411.254 1414.005 1416.657 1419.373 1422.591 1426.756 1432.139 1438.753 1446.300 1454.394 1462.981 1472.255 1481.921 1490.933 1498.321 1503.777 1506.890
1511.013 1495.827 1472.393 1449.336 1430.996 1416.768 1404.629 1393.159 1381.479 1369.431 1357.713 1347.310 1338.924 1332.793 1328.678 1325.990 1323.974 1321.934 1319.600 1317.216 1314.743 1311.056 1304.776 1296.076 1286.976 1279.730 1275.373 1273.539 1273.116 1273.180 1273.528 1274.304 1275.387 1276.423 1277.226 1277.818 1278.254 1278.581 1278.847 1279.097 1279.405 1279.852 1280.431 1281.040 1281.579 1282.021 1282.402 1282.745 1283.036 1283.277 1283.530 1283.857 1284.263 1284.698 1285.086 1285.358 1285.501 1285.557 1285.580 1285.674 1286.293 1288.555 1293.306 1299.363 1304.044 1305.998 1306.158 1305.985 1306.111 1306.496 1306.990 1307.581 1308.326 1309.283 1310.581 1312.407 1314.905 1318.117 1321.987 1326.367 1331.062 1335.814 1340.361 1344.564 1348.268 1351.131 1352.938 1353.880 1354.281 1354.263 1353.809 1352.943 1351.807 1350.626 1349.618 1348.892 1348.444 1348.213 1348.154 1348.252 1348.516 1348.957 1349.562 1350.288 1351.095 1351.958 1352.856 1353.745 1354.547 1355.159 1355.514 1355.644 1355.676 1355.766 1355.997 1356.319 1356.610 1356.755 1356.625 1356.007 1354.664 1352.506 1349.723 1346.701 1343.824 1341.403 1339.861 1339.758 1341.366 1344.223 1347.378 1350.017 1351.804 1352.875 1353.720 1354.804 1355.988 1356.614 1356.529 1356.861 1359.477 1365.436 1373.676 1381.644 1387.515 1391.106 1392.864 1393.342 1393.559 1394.639 1396.908 1399.826 1402.743 1405.313 1407.154 1407.661 1406.642 1404.809 1403.081 1401.557 1399.557 1396.536 1392.674 1388.670 1385.161 1382.312 1380.289 1379.860 1381.304 1383.148 1383.519 1382.156 1380.159 1378.765 1378.964 1381.006 1383.613 1385.369 1387.223 1391.007 1396.034 1400.222 1403.114 1405.518 1407.889 1410.208 1412.482 1414.909 1417.821 1421.616 1426.638 1432.933 1440.221 1448.268 1457.102 1466.611 1476.069 1484.445 1491.255 1496.534 1499.719
1520.010 1505.173 1481.620 1457.583 1438.014 1422.949 1410.359 1398.661 1386.942 1374.862 1362.806 1351.558 1341.810 1333.933 1327.967 1323.737 1320.902 1318.957 1317.449 1316.156 1314.679 1311.901 1306.473 1298.284 1289.095 1281.260 1276.152 1273.745 1273.076 1273.137 1273.549 1274.335 1275.350 1276.300 1277.058 1277.642 1278.084 1278.423 1278.702 1278.966 1279.286 1279.730 1280.300 1280.922 1281.485 1281.922 1282.256 1282.534 1282.765 1282.975 1283.237 1283.577 1283.941 1284.299 1284.677 1285.062 1285.367 1285.528 1285.552 1285.528 1285.953 1288.138 1293.110 1299.565 1304.553 1306.591 1306.586 1306.078 1305.923 1306.256 1306.880 1307.601 1308.335 1309.084 1309.970 1311.198 1312.919 1315.218 1318.161 1321.748 1325.817 1330.025 1333.999 1337.524 1340.476 1342.678 1344.047 1344.787 1345.233 1345.576 1345.818 1345.903 1345.836 1345.707 1345.613 1345.605 1345.677 1345.815 1346.019 1346.309 1346.703 1347.212 1347.820 1348.491 1349.195 1349.922 1350.669 1351.417 1352.113 1352.680 1353.058 1353.246 1353.318 1353.374 1353.472 1353.587 1353.642 1353.550 1353.189 1352.397 1351.044 1349.155 1346.931 1344.644 1342.465 1340.445 1338.744 1337.779 1337.954 1339.261 1341.236 1343.299 1345.108 1346.688 1348.262 1349.944 1351.524 1352.601 1353.163 1354.047 1356.682 1362.102 1369.830 1377.950 1384.629 1389.168 1391.605 1392.330 1392.327 1392.901 1394.704 1397.357 1400.174 1402.845 1405.159 1406.521 1406.361 1404.924 1403.094 1401.371 1399.409 1396.645 1393.062 1389.162 1385.440 1382.081 1379.309 1377.831 1378.135 1379.373 1379.981 1379.277 1377.708 1376.184 1375.743 1376.948 1378.934 1380.492 1382.430 1386.409 1391.752 1396.377 1399.651 1402.193 1404.426 1406.481 1408.524 1410.751 1413.403 1416.878 1421.601 1427.677 1434.848 1442.917 1451.887 1461.439 1470.583 1478.342 1484.621 1489.714 1492.929
1531.236 1516.915 1493.348 1468.097 1446.781 1430.434 1417.152 1405.020 1393.031 1380.822 1368.551 1356.737 1345.966 1336.674 1329.132 1323.522 1319.820 1317.640 1316.413 1315.631 1314.708 1312.608 1308.008 1300.471 1291.393 1283.109 1277.250 1274.142 1273.097 1273.124 1273.632 1274.443 1275.370 1276.200 1276.872 1277.418 1277.865 1278.235 1278.547 1278.836 1279.174 1279.617 1280.162 1280.762 1281.315 1281.730 1282.018 1282.242 1282.443 1282.674 1282.994 1283.372 1283.702 1283.954 1284.223 1284.593 1285.016 1285.358 1285.504 1285.454 1285.705 1287.671 1292.501 1298.988 1304.251 1306.724 1306.994 1306.371 1305.878 1305.986 1306.607 1307.410 1308.157 1308.804 1309.465 1310.307 1311.455 1313.024 1315.146 1317.879 1321.130 1324.635 1328.043 1331.055 1333.495 1335.283 1336.467 1337.257 1337.925 1338.640 1339.409 1340.150 1340.810 1341.404 1341.969 1342.510 1343.011 1343.471 1343.916 1344.387 1344.907 1345.472 1346.065 1346.665 1347.261 1347.860 1348.476 1349.100 1349.697 1350.211 1350.594 1350.827 1350.939 1350.995 1351.032 1351.025 1350.913 1350.622 1350.042 1349.060 1347.653 1345.948 1344.166 1342.473 1340.863 1339.228 1337.620 1336.366 1335.817 1336.070 1336.985 1338.350 1340.020 1341.936 1344.020 1346.084 1347.853 1349.118 1350.022 1351.256 1353.885 1358.795 1365.918 1373.955 1381.210 1386.589 1389.759 1390.930 1390.946 1391.137 1392.444 1394.765 1397.453 1400.164 1402.779 1404.817 1405.541 1404.765 1403.112 1401.272 1399.260 1396.634 1393.253 1389.489 1385.795 1382.370 1379.310 1376.940 1375.706 1375.564 1375.824 1375.725 1374.919 1373.642 1372.759 1373.111 1374.394 1375.755 1377.796 1381.853 1387.326 1392.288 1395.970 1398.749 1400.986 1402.916 1404.805 1406.855 1409.291 1412.523 1417.002 1422.865 1429.894 1437.895 1446.866 1456.433 1465.444 1472.824 1478.631 1483.399 1486.490
1543.826 1530.035 1506.548 1480.157 1456.940 1438.964 1424.689 1411.945 1399.554 1387.143 1374.716 1362.519 1350.966 1340.504 1331.584 1324.664 1319.982 1317.292 1315.988 1315.369 1314.718 1313.107 1309.297 1302.579 1293.894 1285.366 1278.769 1274.814 1273.232 1273.161 1273.781 1274.626 1275.449 1276.139 1276.714 1277.210 1277.641 1278.015 1278.345 1278.665 1279.034 1279.484 1280.001 1280.546 1281.044 1281.426 1281.698 1281.920 1282.148 1282.434 1282.796 1283.166 1283.455 1283.642 1283.809 1284.081 1284.503 1284.975 1285.301 1285.342 1285.494 1287.099 1291.353 1297.405 1302.825 1306.016 1307.020 1306.668 1305.994 1305.819 1306.298 1307.062 1307.758 1308.314 1308.839 1309.436 1310.179 1311.208 1312.702 1314.736 1317.254 1320.096 1323.002 1325.668 1327.869 1329.536 1330.754 1331.707 1332.602 1333.567 1334.617 1335.691 1336.735 1337.735 1338.695 1339.594 1340.402 1341.113 1341.756 1342.378 1343.002 1343.618 1344.203 1344.744 1345.249 1345.745 1346.255 1346.779 1347.285 1347.739 1348.105 1348.358 1348.506 1348.583 1348.613 1348.564 1348.374 1347.965 1347.239 1346.123 1344.670 1343.082 1341.590 1340.285 1339.055 1337.727 1336.330 1335.141 1334.418 1334.229 1334.567 1335.458 1336.917 1338.869 1341.082 1343.219 1344.972 1346.228 1347.218 1348.551 1351.062 1355.495 1361.986 1369.684 1377.110 1383.016 1386.836 1388.608 1388.956 1389.071 1390.056 1392.115 1394.724 1397.458 1400.211 1402.660 1404.092 1404.038 1402.785 1400.997 1398.960 1396.438 1393.237 1389.599 1385.968 1382.648 1379.718 1377.050 1374.573 1372.627 1371.670 1371.538 1371.389 1370.623 1369.662 1369.439 1370.146 1371.348 1373.494 1377.601 1383.176 1388.459 1392.493 1395.441 1397.679 1399.530 1401.300 1403.203 1405.474 1408.509 1412.719 1418.255 1424.954 1432.704 1441.624 1451.382 1460.632 1467.984 1473.425 1477.735 1480.547
1556.179 1543.023 1520.038 1493.153 1468.364 1448.489 1432.739 1419.133 1406.343 1393.809 1381.284 1368.724 1356.416 1344.892 1334.744 1326.578 1320.822 1317.428 1315.834 1315.191 1314.655 1313.398 1310.322 1304.532 1296.489 1287.938 1280.670 1275.800 1273.569 1273.322 1274.016 1274.875 1275.585 1276.145 1276.637 1277.085 1277.475 1277.816 1278.139 1278.482 1278.880 1279.335 1279.818 1280.284 1280.696 1281.036 1281.320 1281.583 1281.860 1282.181 1282.534 1282.862 1283.120 1283.297 1283.429 1283.618 1283.958 1284.431 1284.861 1285.036 1285.179 1286.364 1289.732 1294.979 1300.371 1304.333 1306.320 1306.607 1306.066 1305.725 1306.014 1306.640 1307.205 1307.629 1308.018 1308.424 1308.886 1309.562 1310.649 1312.219 1314.224 1316.566 1319.062 1321.464 1323.556 1325.251 1326.600 1327.735 1328.801 1329.900 1331.060 1332.250 1333.436 1334.602 1335.737 1336.812 1337.793 1338.662 1339.438 1340.159 1340.850 1341.507 1342.106 1342.633 1343.096 1343.532 1343.973 1344.421 1344.852 1345.241 1345.572 1345.830 1346.013 1346.137 1346.206 1346.184 1346.004 1345.578 1344.808 1343.648 1342.200 1340.697 1339.360 1338.240 1337.205 1336.093 1334.933 1333.955 1333.331 1333.080 1333.232 1333.900 1335.163 1336.965 1339.065 1341.103 1342.753 1343.902 1344.776 1345.939 1348.149 1352.095 1357.981 1365.188 1372.459 1378.578 1382.874 1385.253 1386.145 1386.529 1387.498 1389.468 1392.064 1394.812 1397.583 1400.211 1402.105 1402.662 1401.900 1400.357 1398.447 1396.108 1393.126 1389.612 1385.987 1382.684 1379.966 1377.576 1374.795 1371.535 1368.856 1367.602 1367.228 1366.702 1365.925 1365.597 1366.085 1367.279 1369.609 1373.890 1379.710 1385.362 1389.635 1392.554 1394.646 1396.364 1398.022 1399.821 1401.973 1404.806 1408.674 1413.749 1419.972 1427.405 1436.335 1446.431 1456.118 1463.666 1468.893 1472.769 1475.260
1567.214 1555.029 1533.346 1506.986 1481.222 1459.297 1441.538 1426.711 1413.503 1400.958 1388.364 1375.342 1362.166 1349.598 1338.388 1329.138 1322.320 1318.068 1315.959 1315.099 1314.551 1313.542 1311.104 1306.228 1298.934 1290.529 1282.723 1276.990 1274.097 1273.606 1274.274 1275.088 1275.703 1276.183 1276.625 1277.031 1277.373 1277.671 1277.977 1278.328 1278.732 1279.171 1279.604 1279.989 1280.317 1280.611 1280.896 1281.185 1281.489 1281.810 1282.128 1282.416 1282.662 1282.848 1282.988 1283.169 1283.457 1283.832 1284.193 1284.404 1284.568 1285.394 1287.831 1292.064 1297.095 1301.512 1304.399 1305.579 1305.602 1305.439 1305.677 1306.171 1306.581 1306.851 1307.077 1307.296 1307.553 1308.017 1308.866 1310.150 1311.832 1313.833 1316.018 1318.199 1320.207 1321.955 1323.443 1324.736 1325.926 1327.093 1328.276 1329.472 1330.668 1331.853 1333.016 1334.130 1335.165 1336.099 1336.935 1337.702 1338.425 1339.107 1339.729 1340.274 1340.743 1341.168 1341.581 1341.987 1342.366 1342.700 1342.991 1343.247 1343.470 1343.658 1343.799 1343.854 1343.753 1343.398 1342.682 1341.576 1340.201 1338.782 1337.512 1336.439 1335.469 1334.488 1333.536 1332.791 1332.352 1332.186 1332.323 1332.894 1333.989 1335.582 1337.493 1339.408 1340.982 1342.020 1342.660 1343.434 1345.146 1348.541 1353.863 1360.590 1367.608 1373.775 1378.392 1381.290 1382.781 1383.655 1384.868 1386.910 1389.542 1392.295 1395.023 1397.677 1399.802 1400.766 1400.439 1399.262 1397.697 1395.772 1393.180 1389.838 1386.126 1382.613 1379.837 1377.835 1375.641 1372.290 1368.346 1365.239 1363.419 1362.320 1361.625 1361.551 1362.221 1363.618 1366.239 1370.843 1377.056 1383.106 1387.512 1390.226 1392.005 1393.496 1395.028 1396.764 1398.846 1401.491 1404.970 1409.496 1415.211 1422.415 1431.444 1441.819 1451.800 1459.525 1464.702 1468.333 1470.604
1576.810 1565.865 1546.053 1520.970 1494.892 1471.223 1451.356 1435.054 1421.269 1408.635 1395.879 1382.303 1368.234 1354.738 1342.744 1332.705 1324.917 1319.609 1316.620 1315.224 1314.479 1313.581 1311.608 1307.494 1300.927 1292.798 1284.648 1278.200 1274.682 1273.875 1274.414 1275.142 1275.708 1276.174 1276.604 1276.981 1277.283 1277.547 1277.836 1278.183 1278.573 1278.973 1279.347 1279.669 1279.938 1280.186 1280.444 1280.728 1281.040 1281.356 1281.642 1281.891 1282.115 1282.296 1282.464 1282.707 1283.012 1283.261 1283.411 1283.498 1283.638 1284.215 1285.884 1289.038 1293.238 1297.439 1300.773 1302.883 1303.937 1304.515 1305.072 1305.581 1305.882 1306.016 1306.088 1306.138 1306.248 1306.588 1307.291 1308.387 1309.852 1311.619 1313.570 1315.568 1317.492 1319.267 1320.859 1322.275 1323.558 1324.764 1325.933 1327.086 1328.230 1329.363 1330.476 1331.550 1332.561 1333.487 1334.329 1335.105 1335.834 1336.521 1337.153 1337.715 1338.205 1338.646 1339.063 1339.459 1339.812 1340.114 1340.380 1340.638 1340.899 1341.152 1341.371 1341.516 1341.522 1341.279 1340.678 1339.700 1338.460 1337.148 1335.923 1334.851 1333.894 1332.993 1332.202 1331.667 1331.416 1331.361 1331.517 1332.014 1332.949 1334.321 1336.028 1337.827 1339.363 1340.333 1340.743 1341.077 1342.207 1344.987 1349.759 1356.076 1362.890 1369.090 1373.965 1377.314 1379.386 1380.813 1382.380 1384.567 1387.250 1390.002 1392.647 1395.214 1397.384 1398.553 1398.514 1397.680 1396.598 1395.359 1393.463 1390.481 1386.664 1382.731 1379.499 1377.469 1375.995 1373.542 1369.521 1364.979 1361.236 1358.836 1357.791 1357.916 1358.881 1360.545 1363.453 1368.418 1375.078 1381.512 1385.985 1388.423 1389.812 1390.997 1392.368 1394.071 1396.165 1398.697 1401.783 1405.675 1410.825 1417.825 1426.939 1437.409 1447.429 1455.232 1460.508 1464.167 1466.407
1585.511 1575.668 1557.559 1533.791 1507.859 1483.180 1461.784 1444.195 1429.696 1416.681 1403.534 1389.423 1374.714 1360.650 1348.231 1337.676 1328.972 1322.360 1318.050 1315.714 1314.521 1313.561 1311.851 1308.309 1302.429 1294.720 1286.460 1279.454 1275.289 1274.037 1274.352 1274.987 1275.546 1276.052 1276.515 1276.892 1277.168 1277.400 1277.666 1277.998 1278.367 1278.724 1279.043 1279.321 1279.558 1279.772 1280.002 1280.277 1280.598 1280.918 1281.180 1281.388 1281.576 1281.754 1281.969 1282.293 1282.619 1282.739 1282.659 1282.574 1282.646 1283.052 1284.151 1286.276 1289.284 1292.593 1295.720 1298.456 1300.719 1302.514 1303.827 1304.601 1304.920 1305.006 1304.998 1304.950 1304.981 1305.256 1305.871 1306.845 1308.161 1309.762 1311.538 1313.382 1315.209 1316.963 1318.599 1320.093 1321.443 1322.670 1323.815 1324.914 1325.991 1327.051 1328.087 1329.086 1330.035 1330.918 1331.735 1332.496 1333.211 1333.883 1334.504 1335.065 1335.566 1336.022 1336.452 1336.851 1337.202 1337.499 1337.766 1338.037 1338.328 1338.627 1338.902 1339.117 1339.207 1339.065 1338.592 1337.778 1336.719 1335.555 1334.411 1333.371 1332.446 1331.616 1330.954 1330.584 1330.487 1330.528 1330.692 1331.106 1331.873 1333.019 1334.495 1336.129 1337.589 1338.512 1338.797 1338.853 1339.530 1341.733 1345.935 1351.842 1358.496 1364.783 1369.947 1373.750 1376.380 1378.334 1380.239 1382.558 1385.274 1388.000 1390.514 1392.893 1394.969 1396.194 1396.289 1395.662 1395.009 1394.539 1393.601 1391.338 1387.661 1383.303 1379.321 1376.661 1375.294 1373.788 1370.667 1365.983 1361.074 1357.338 1355.468 1355.330 1356.325 1358.134 1361.284 1366.608 1373.686 1380.417 1384.896 1387.061 1388.054 1388.873 1390.012 1391.674 1393.851 1396.362 1399.075 1402.254 1406.698 1413.341 1422.386 1432.803 1442.736 1450.589 1456.111 1460.059 1462.467
1594.266 1585.123 1568.153 1545.319 1519.574 1494.396 1472.236 1453.941 1438.790 1425.037 1411.159 1396.560 1381.628 1367.440 1354.824 1343.794 1334.133 1326.094 1320.218 1316.637 1314.760 1313.604 1312.079 1309.085 1303.941 1296.778 1288.555 1281.029 1276.070 1274.167 1274.151 1274.681 1275.245 1275.810 1276.329 1276.726 1276.996 1277.209 1277.452 1277.763 1278.112 1278.438 1278.719 1278.966 1279.187 1279.390 1279.606 1279.867 1280.172 1280.478 1280.725 1280.916 1281.107 1281.333 1281.619 1281.963 1282.216 1282.193 1281.967 1281.799 1281.832 1282.121 1282.818 1284.101 1285.933 1288.110 1290.577 1293.412 1296.511 1299.433 1301.632 1302.880 1303.418 1303.623 1303.675 1303.644 1303.667 1303.919 1304.504 1305.438 1306.693 1308.196 1309.849 1311.563 1313.275 1314.951 1316.559 1318.064 1319.434 1320.664 1321.785 1322.841 1323.862 1324.858 1325.820 1326.741 1327.614 1328.437 1329.210 1329.939 1330.624 1331.268 1331.867 1332.416 1332.912 1333.370 1333.802 1334.204 1334.563 1334.876 1335.164 1335.455 1335.766 1336.088 1336.391 1336.639 1336.770 1336.695 1336.338 1335.698 1334.847 1333.871 1332.867 1331.924 1331.078 1330.332 1329.767 1329.504 1329.505 1329.615 1329.788 1330.121 1330.721 1331.635 1332.843 1334.228 1335.514 1336.365 1336.651 1336.684 1337.181 1338.973 1342.617 1348.053 1354.521 1360.939 1366.458 1370.738 1373.895 1376.310 1378.487 1380.874 1383.565 1386.229 1388.582 1390.712 1392.614 1393.807 1393.912 1393.325 1392.898 1393.019 1393.068 1391.893 1388.871 1384.405 1379.647 1375.945 1373.918 1372.690 1370.613 1366.874 1362.084 1357.625 1354.718 1353.778 1354.425 1356.300 1359.792 1365.521 1372.873 1379.693 1384.094 1386.025 1386.651 1387.053 1387.860 1389.399 1391.651 1394.202 1396.617 1399.101 1402.741 1408.810 1417.555 1427.767 1437.542 1445.456 1451.347 1455.776 1458.493
1603.809 1595.080 1578.906 1556.826 1531.218 1505.636 1483.108 1464.573 1448.867 1434.051 1419.011 1403.746 1388.756 1374.667 1361.865 1350.259 1339.675 1330.381 1323.036 1318.105 1315.339 1313.864 1312.552 1310.228 1305.950 1299.418 1291.250 1283.123 1277.170 1274.401 1273.944 1274.342 1274.895 1275.497 1276.054 1276.469 1276.750 1276.976 1277.220 1277.522 1277.860 1278.175 1278.435 1278.659 1278.868 1279.068 1279.264 1279.468 1279.703 1279.960 1280.194 1280.411 1280.685 1281.037 1281.391 1281.639 1281.683 1281.501 1281.244 1281.118 1281.186 1281.424 1281.875 1282.608 1283.620 1284.930 1286.729 1289.275 1292.531 1295.925 1298.665 1300.377 1301.288 1301.782 1302.042 1302.136 1302.208 1302.475 1303.090 1304.074 1305.357 1306.836 1308.419 1310.035 1311.638 1313.209 1314.734 1316.178 1317.506 1318.706 1319.800 1320.821 1321.801 1322.746 1323.644 1324.487 1325.280 1326.035 1326.757 1327.443 1328.091 1328.703 1329.277 1329.807 1330.290 1330.737 1331.159 1331.557 1331.925 1332.259 1332.573 1332.885 1333.209 1333.541 1333.853 1334.109 1334.255 1334.225 1333.973 1333.503 1332.860 1332.097 1331.282 1330.493 1329.760 1329.097 1328.596 1328.376 1328.413 1328.565 1328.760 1329.041 1329.491 1330.176 1331.105 1332.198 1333.252 1334.011 1334.373 1334.562 1335.112 1336.693 1339.868 1344.799 1351.009 1357.534 1363.418 1368.157 1371.763 1374.548 1376.926 1379.310 1381.896 1384.465 1386.685 1388.588 1390.296 1391.413 1391.460 1390.779 1390.355 1390.771 1391.599 1391.649 1389.785 1385.772 1380.559 1375.783 1372.649 1370.975 1369.457 1366.907 1363.071 1358.637 1354.867 1352.859 1352.920 1354.914 1358.942 1365.085 1372.461 1379.113 1383.383 1385.163 1385.493 1385.468 1385.848 1387.126 1389.364 1391.993 1394.267 1396.222 1399.085 1404.398 1412.551 1422.303 1431.765 1439.698 1446.008 1450.986 1454.045
1613.718 1605.354 1589.972 1568.884 1543.822 1518.139 1495.374 1476.617 1460.293 1444.286 1427.796 1411.423 1396.008 1381.842 1368.792 1356.665 1345.415 1335.266 1326.756 1320.486 1316.596 1314.528 1313.259 1311.554 1308.182 1302.376 1294.359 1285.653 1278.618 1274.829 1273.814 1274.039 1274.569 1275.185 1275.759 1276.183 1276.484 1276.741 1277.011 1277.323 1277.663 1277.975 1278.223 1278.422 1278.607 1278.782 1278.924 1279.039 1279.181 1279.383 1279.617 1279.893 1280.290 1280.785 1281.158 1281.213 1280.994 1280.690 1280.487 1280.473 1280.614 1280.851 1281.186 1281.642 1282.244 1283.111 1284.498 1286.661 1289.580 1292.768 1295.525 1297.478 1298.741 1299.577 1300.115 1300.409 1300.603 1300.946 1301.643 1302.724 1304.078 1305.575 1307.126 1308.680 1310.204 1311.687 1313.116 1314.466 1315.711 1316.850 1317.898 1318.877 1319.810 1320.700 1321.532 1322.295 1323.007 1323.694 1324.364 1325.007 1325.618 1326.197 1326.744 1327.250 1327.715 1328.146 1328.553 1328.939 1329.308 1329.658 1329.992 1330.321 1330.656 1330.995 1331.314 1331.576 1331.737 1331.753 1331.598 1331.280 1330.827 1330.276 1329.672 1329.062 1328.455 1327.869 1327.405 1327.184 1327.209 1327.376 1327.598 1327.858 1328.194 1328.679 1329.358 1330.191 1331.035 1331.720 1332.179 1332.569 1333.265 1334.772 1337.594 1342.029 1347.884 1354.392 1360.554 1365.670 1369.615 1372.669 1375.208 1377.573 1380.017 1382.485 1384.643 1386.400 1387.922 1388.936 1388.900 1388.069 1387.512 1387.985 1389.266 1390.322 1389.784 1386.771 1381.709 1376.226 1371.995 1369.516 1368.001 1366.265 1363.505 1359.607 1355.400 1352.381 1351.722 1353.785 1358.360 1364.813 1371.997 1378.355 1382.554 1384.335 1384.497 1384.101 1384.018 1384.914 1387.003 1389.694 1391.994 1393.677 1395.892 1400.311 1407.537 1416.491 1425.436 1433.298 1439.961 1445.413 1448.765
1622.607 1614.684 1600.225 1580.533 1556.814 1531.788 1508.991 1489.804 1472.832 1455.995 1438.361 1420.621 1404.089 1389.277 1375.820 1363.334 1351.749 1341.156 1331.853 1324.386 1319.168 1316.039 1314.264 1312.714 1310.017 1304.998 1297.384 1288.358 1280.350 1275.465 1273.764 1273.768 1274.290 1274.930 1275.516 1275.947 1276.267 1276.552 1276.850 1277.177 1277.516 1277.815 1278.040 1278.203 1278.338 1278.448 1278.510 1278.547 1278.640 1278.833 1279.098 1279.438 1279.933 1280.515 1280.856 1280.735 1280.336 1279.992 1279.862 1279.929 1280.113 1280.354 1280.642 1280.988 1281.437 1282.136 1283.311 1285.135 1287.561 1290.237 1292.683 1294.625 1296.081 1297.173 1297.965 1298.497 1298.903 1299.419 1300.250 1301.432 1302.849 1304.363 1305.892 1307.400 1308.869 1310.285 1311.635 1312.898 1314.063 1315.132 1316.116 1317.034 1317.904 1318.726 1319.482 1320.162 1320.792 1321.413 1322.036 1322.640 1323.215 1323.759 1324.273 1324.751 1325.195 1325.609 1325.998 1326.369 1326.730 1327.083 1327.429 1327.772 1328.120 1328.471 1328.803 1329.080 1329.268 1329.337 1329.274 1329.086 1328.795 1328.429 1328.016 1327.575 1327.097 1326.597 1326.172 1325.941 1325.932 1326.088 1326.325 1326.581 1326.852 1327.202 1327.700 1328.339 1329.031 1329.667 1330.211 1330.771 1331.604 1333.080 1335.619 1339.557 1344.915 1351.174 1357.407 1362.773 1366.974 1370.249 1372.960 1375.379 1377.765 1380.209 1382.404 1384.092 1385.420 1386.289 1386.176 1385.217 1384.515 1384.929 1386.346 1387.945 1388.474 1386.709 1382.435 1376.898 1371.973 1368.745 1366.929 1365.536 1363.608 1360.478 1356.293 1352.461 1350.888 1352.648 1357.445 1364.019 1370.968 1377.103 1381.396 1383.398 1383.594 1382.968 1382.482 1382.935 1384.695 1387.287 1389.676 1391.368 1393.189 1396.705 1402.733 1410.569 1418.786 1426.435 1433.299 1439.121 1442.745
1629.495 1622.212 1608.918 1590.898 1569.015 1545.195 1522.553 1502.879 1485.525 1468.715 1451.022 1432.488 1414.551 1398.396 1384.025 1370.994 1359.111 1348.328 1338.653 1330.350 1323.812 1319.177 1316.152 1313.982 1311.426 1307.068 1300.087 1291.089 1282.320 1276.319 1273.817 1273.566 1274.111 1274.777 1275.347 1275.768 1276.102 1276.413 1276.731 1277.064 1277.387 1277.655 1277.836 1277.944 1278.005 1278.026 1278.006 1277.997 1278.095 1278.330 1278.643 1279.023 1279.558 1280.184 1280.547 1280.406 1279.976 1279.630 1279.507 1279.560 1279.715 1279.931 1280.191 1280.496 1280.894 1281.515 1282.531 1284.046 1286.006 1288.167 1290.230 1292.017 1293.504 1294.723 1295.694 1296.460 1297.133 1297.899 1298.914 1300.204 1301.672 1303.195 1304.702 1306.168 1307.583 1308.937 1310.216 1311.408 1312.506 1313.513 1314.435 1315.288 1316.089 1316.841 1317.524 1318.129 1318.686 1319.242 1319.813 1320.378 1320.915 1321.419 1321.892 1322.338 1322.757 1323.151 1323.520 1323.871 1324.215 1324.560 1324.909 1325.262 1325.623 1325.991 1326.343 1326.646 1326.871 1326.998 1327.020 1326.944 1326.784 1326.559 1326.288 1325.979 1325.620 1325.220 1324.858 1324.638 1324.609 1324.742 1324.970 1325.225 1325.481 1325.778 1326.180 1326.698 1327.286 1327.887 1328.490 1329.168 1330.092 1331.522 1333.781 1337.181 1341.857 1347.543 1353.522 1358.952 1363.385 1366.930 1369.904 1372.536 1375.064 1377.636 1379.945 1381.581 1382.691 1383.423 1383.316 1382.334 1381.539 1381.860 1383.201 1384.894 1385.993 1385.308 1382.160 1377.217 1372.207 1368.566 1366.452 1365.138 1363.769 1361.447 1357.636 1353.240 1350.528 1351.383 1355.825 1362.284 1369.060 1375.104 1379.636 1382.100 1382.652 1382.076 1381.343 1381.347 1382.573 1384.779 1387.151 1389.070 1390.870 1393.712 1398.493 1404.994 1412.257 1419.494 1426.401 1432.533 1436.451
1634.721 1628.343 1616.458 1600.024 1579.683 1556.899 1534.456 1514.544 1497.327 1481.465 1465.127 1447.346 1428.913 1411.328 1395.302 1380.861 1368.080 1356.968 1347.202 1338.504 1330.921 1324.649 1319.821 1316.247 1313.114 1309.033 1302.684 1293.916 1284.549 1277.441 1274.059 1273.516 1274.102 1274.782 1275.275 1275.634 1275.958 1276.289 1276.623 1276.952 1277.250 1277.476 1277.602 1277.643 1277.626 1277.561 1277.468 1277.431 1277.550 1277.826 1278.161 1278.527 1279.045 1279.724 1280.244 1280.290 1279.959 1279.598 1279.398 1279.354 1279.424 1279.578 1279.796 1280.069 1280.431 1280.977 1281.826 1283.049 1284.609 1286.347 1288.070 1289.662 1291.088 1292.341 1293.426 1294.381 1295.303 1296.323 1297.537 1298.949 1300.479 1302.029 1303.535 1304.974 1306.342 1307.636 1308.847 1309.971 1311.009 1311.962 1312.833 1313.634 1314.377 1315.070 1315.697 1316.248 1316.749 1317.246 1317.762 1318.278 1318.771 1319.229 1319.658 1320.065 1320.455 1320.823 1321.168 1321.494 1321.814 1322.143 1322.484 1322.838 1323.208 1323.590 1323.963 1324.294 1324.557 1324.740 1324.840 1324.860 1324.805 1324.683 1324.506 1324.284 1324.018 1323.715 1323.431 1323.250 1323.221 1323.331 1323.536 1323.785 1324.057 1324.370 1324.758 1325.227 1325.760 1326.341 1326.982 1327.730 1328.692 1330.037 1331.995 1334.815 1338.666 1343.475 1348.822 1354.053 1358.674 1362.607 1366.022 1369.078 1371.947 1374.725 1377.072 1378.561 1379.488 1380.269 1380.417 1379.591 1378.748 1378.952 1380.158 1381.734 1382.961 1382.891 1380.740 1376.727 1372.183 1368.572 1366.370 1365.102 1364.092 1362.481 1359.283 1354.673 1350.783 1350.184 1353.633 1359.676 1366.290 1372.272 1377.030 1380.125 1381.443 1381.348 1380.633 1380.260 1380.844 1382.405 1384.516 1386.651 1388.706 1391.258 1395.033 1400.195 1406.337 1412.961 1419.748 1426.063 1430.189
1639.456 1633.947 1623.170 1607.587 1587.956 1565.909 1544.041 1524.542 1508.020 1493.603 1479.503 1464.082 1447.039 1429.203 1411.445 1394.562 1379.655 1367.405 1357.335 1348.447 1340.167 1332.505 1325.818 1320.402 1315.994 1311.524 1305.424 1296.824 1286.975 1278.842 1274.524 1273.595 1274.209 1274.943 1275.358 1275.589 1275.834 1276.141 1276.473 1276.789 1277.059 1277.245 1277.323 1277.309 1277.231 1277.103 1276.963 1276.909 1277.031 1277.304 1277.608 1277.908 1278.360 1279.075 1279.816 1280.167 1280.029 1279.682 1279.396 1279.244 1279.213 1279.281 1279.427 1279.644 1279.951 1280.405 1281.081 1282.037 1283.265 1284.664 1286.106 1287.512 1288.849 1290.096 1291.248 1292.338 1293.443 1294.653 1296.027 1297.556 1299.172 1300.786 1302.330 1303.776 1305.122 1306.370 1307.524 1308.589 1309.574 1310.483 1311.316 1312.078 1312.778 1313.425 1314.011 1314.528 1314.994 1315.448 1315.911 1316.375 1316.818 1317.230 1317.615 1317.983 1318.338 1318.675 1318.993 1319.294 1319.591 1319.898 1320.222 1320.567 1320.935 1321.322 1321.706 1322.054 1322.344 1322.571 1322.737 1322.838 1322.868 1322.824 1322.712 1322.546 1322.343 1322.118 1321.908 1321.770 1321.745 1321.832 1322.008 1322.250 1322.550 1322.915 1323.348 1323.838 1324.379 1324.977 1325.651 1326.436 1327.392 1328.623 1330.280 1332.545 1335.563 1339.369 1343.816 1348.561 1353.222 1357.574 1361.565 1365.191 1368.469 1371.350 1373.493 1374.695 1375.587 1376.761 1377.512 1377.065 1376.207 1376.239 1377.345 1378.868 1380.068 1380.164 1378.562 1375.382 1371.571 1368.353 1366.319 1365.188 1364.437 1363.401 1360.962 1356.560 1351.729 1349.419 1351.358 1356.624 1362.969 1368.823 1373.688 1377.411 1379.755 1380.560 1380.224 1379.684 1379.716 1380.572 1382.177 1384.247 1386.512 1389.046 1392.208 1396.275 1401.295 1407.145 1413.572 1419.776 1423.871
1644.665 1639.546 1628.897 1613.022 1593.502 1572.545 1552.201 1533.936 1518.401 1505.280 1493.259 1480.641 1466.366 1450.144 1431.998 1412.782 1394.753 1380.071 1368.830 1359.488 1350.678 1342.034 1333.894 1326.709 1320.582 1314.933 1308.402 1299.751 1289.602 1280.640 1275.306 1273.738 1274.255 1275.123 1275.566 1275.663 1275.740 1275.948 1276.241 1276.534 1276.771 1276.920 1276.966 1276.924 1276.820 1276.674 1276.536 1276.499 1276.621 1276.859 1277.103 1277.318 1277.661 1278.328 1279.195 1279.822 1279.935 1279.686 1279.375 1279.154 1279.040 1279.015 1279.066 1279.195 1279.418 1279.764 1280.276 1281.004 1281.957 1283.080 1284.288 1285.531 1286.777 1287.999 1289.187 1290.362 1291.578 1292.901 1294.372 1295.985 1297.685 1299.385 1301.007 1302.503 1303.861 1305.089 1306.204 1307.227 1308.175 1309.052 1309.860 1310.598 1311.270 1311.884 1312.439 1312.933 1313.379 1313.804 1314.227 1314.644 1315.041 1315.413 1315.762 1316.095 1316.415 1316.721 1317.013 1317.295 1317.573 1317.862 1318.169 1318.499 1318.855 1319.232 1319.610 1319.959 1320.260 1320.516 1320.728 1320.888 1320.980 1320.994 1320.931 1320.808 1320.652 1320.488 1320.337 1320.233 1320.205 1320.268 1320.419 1320.655 1320.980 1321.399 1321.901 1322.467 1323.081 1323.744 1324.467 1325.275 1326.205 1327.316 1328.708 1330.514 1332.841 1335.755 1339.281 1343.363 1347.818 1352.386 1356.829 1360.944 1364.529 1367.341 1369.110 1370.034 1371.108 1372.930 1374.510 1374.643 1373.851 1373.660 1374.670 1376.300 1377.604 1377.742 1376.317 1373.616 1370.439 1367.728 1366.018 1365.143 1364.678 1364.146 1362.501 1358.647 1353.290 1349.352 1349.498 1353.658 1359.584 1365.283 1370.181 1374.370 1377.639 1379.476 1379.832 1379.439 1379.165 1379.467 1380.485 1382.178 1384.359 1386.876 1389.721 1393.032 1397.055 1401.995 1407.767 1413.533 1417.377
1650.713 1645.589 1634.453 1617.913 1598.719 1579.470 1561.176 1544.257 1529.386 1516.921 1506.126 1495.513 1483.874 1470.345 1453.818 1433.999 1413.210 1395.181 1381.573 1371.059 1361.597 1352.281 1343.186 1334.602 1326.718 1319.436 1311.953 1303.097 1292.889 1283.313 1276.787 1274.115 1274.165 1275.098 1275.686 1275.737 1275.638 1275.703 1275.937 1276.199 1276.395 1276.504 1276.531 1276.488 1276.393 1276.278 1276.207 1276.247 1276.410 1276.636 1276.837 1276.980 1277.189 1277.692 1278.514 1279.301 1279.656 1279.557 1279.275 1279.023 1278.850 1278.741 1278.690 1278.715 1278.835 1279.069 1279.442 1279.984 1280.712 1281.601 1282.609 1283.706 1284.861 1286.044 1287.234 1288.447 1289.718 1291.093 1292.605 1294.255 1296.004 1297.777 1299.489 1301.068 1302.475 1303.713 1304.815 1305.819 1306.749 1307.611 1308.408 1309.136 1309.798 1310.398 1310.938 1311.420 1311.854 1312.260 1312.652 1313.031 1313.391 1313.732 1314.054 1314.361 1314.653 1314.934 1315.206 1315.474 1315.742 1316.019 1316.314 1316.630 1316.969 1317.327 1317.687 1318.024 1318.326 1318.596 1318.834 1319.028 1319.156 1319.206 1319.181 1319.098 1318.989 1318.877 1318.775 1318.697 1318.672 1318.722 1318.858 1319.088 1319.425 1319.877 1320.441 1321.100 1321.822 1322.581 1323.373 1324.210 1325.117 1326.129 1327.318 1328.787 1330.622 1332.891 1335.688 1339.103 1343.103 1347.475 1351.937 1356.195 1359.879 1362.578 1364.116 1365.021 1366.448 1368.901 1371.266 1372.093 1371.541 1371.160 1372.008 1373.760 1375.335 1375.714 1374.480 1372.013 1369.164 1366.779 1365.358 1364.831 1364.789 1364.759 1363.827 1360.671 1355.232 1350.012 1348.333 1351.162 1356.571 1362.199 1367.187 1371.678 1375.541 1378.178 1379.258 1379.224 1378.901 1378.888 1379.454 1380.680 1382.525 1384.839 1387.427 1390.215 1393.406 1397.372 1402.259 1407.374 1410.862
1657.550 1652.652 1641.715 1625.608 1607.654 1590.219 1573.286 1556.686 1541.487 1528.813 1518.390 1508.787 1498.804 1487.615 1473.636 1455.207 1433.398 1412.361 1395.568 1382.975 1372.494 1362.597 1352.836 1343.203 1333.887 1325.129 1316.664 1307.585 1297.451 1287.369 1279.436 1275.100 1274.078 1274.733 1275.437 1275.565 1275.397 1275.365 1275.555 1275.804 1275.973 1276.048 1276.065 1276.039 1275.978 1275.931 1275.973 1276.133 1276.374 1276.624 1276.817 1276.915 1276.995 1277.283 1277.936 1278.744 1279.261 1279.308 1279.082 1278.825 1278.612 1278.433 1278.291 1278.213 1278.231 1278.365 1278.627 1279.027 1279.574 1280.265 1281.091 1282.047 1283.102 1284.218 1285.374 1286.578 1287.855 1289.239 1290.753 1292.398 1294.149 1295.953 1297.731 1299.393 1300.873 1302.156 1303.281 1304.296 1305.233 1306.101 1306.904 1307.639 1308.307 1308.914 1309.458 1309.943 1310.377 1310.773 1311.143 1311.493 1311.824 1312.139 1312.440 1312.728 1313.004 1313.269 1313.528 1313.786 1314.049 1314.322 1314.610 1314.915 1315.239 1315.576 1315.915 1316.238 1316.538 1316.814 1317.062 1317.270 1317.418 1317.491 1317.495 1317.452 1317.391 1317.329 1317.269 1317.223 1317.213 1317.266 1317.401 1317.631 1317.970 1318.434 1319.034 1319.764 1320.581 1321.434 1322.296 1323.169 1324.068 1325.017 1326.072 1327.315 1328.827 1330.683 1332.978 1335.818 1339.196 1342.963 1346.930 1350.884 1354.445 1357.139 1358.821 1360.083 1361.968 1364.859 1367.767 1369.255 1369.121 1368.703 1369.350 1371.085 1372.897 1373.697 1372.912 1370.755 1368.035 1365.655 1364.294 1364.131 1364.703 1365.254 1364.884 1362.393 1357.242 1351.236 1347.910 1349.294 1354.126 1359.801 1365.014 1369.774 1373.973 1377.030 1378.565 1378.859 1378.628 1378.518 1378.864 1379.772 1381.242 1383.191 1385.426 1387.778 1390.312 1393.380 1397.298 1401.603 1404.630
1664.705 1660.723 1651.431 1637.505 1621.880 1606.177 1589.670 1572.106 1555.297 1541.394 1530.659 1521.547 1512.486 1502.539 1490.384 1474.076 1453.205 1430.708 1410.833 1395.439 1383.392 1372.775 1362.434 1352.035 1341.778 1332.059 1322.878 1313.552 1303.412 1292.832 1283.414 1277.020 1274.303 1274.152 1274.739 1274.971 1274.859 1274.832 1275.045 1275.336 1275.522 1275.580 1275.589 1275.592 1275.595 1275.645 1275.809 1276.075 1276.371 1276.635 1276.822 1276.898 1276.898 1277.016 1277.474 1278.189 1278.763 1278.932 1278.792 1278.558 1278.324 1278.095 1277.880 1277.717 1277.647 1277.695 1277.869 1278.163 1278.572 1279.100 1279.764 1280.573 1281.505 1282.521 1283.599 1284.748 1285.989 1287.345 1288.830 1290.440 1292.155 1293.939 1295.728 1297.437 1298.984 1300.340 1301.530 1302.596 1303.572 1304.472 1305.302 1306.064 1306.759 1307.389 1307.955 1308.457 1308.900 1309.297 1309.659 1309.992 1310.303 1310.597 1310.880 1311.156 1311.422 1311.680 1311.934 1312.189 1312.450 1312.722 1313.005 1313.304 1313.616 1313.937 1314.258 1314.571 1314.867 1315.143 1315.396 1315.612 1315.775 1315.869 1315.900 1315.895 1315.879 1315.864 1315.848 1315.836 1315.852 1315.923 1316.070 1316.307 1316.651 1317.120 1317.734 1318.496 1319.369 1320.285 1321.198 1322.100 1323.002 1323.923 1324.901 1326.002 1327.304 1328.887 1330.826 1333.172 1335.887 1338.865 1342.052 1345.402 1348.664 1351.418 1353.515 1355.402 1357.824 1361.019 1364.220 1366.197 1366.526 1366.229 1366.733 1368.352 1370.236 1371.355 1371.101 1369.443 1366.896 1364.320 1362.760 1362.893 1364.256 1365.551 1365.639 1363.640 1358.968 1352.701 1348.093 1348.021 1352.164 1357.926 1363.483 1368.558 1373.004 1376.253 1377.967 1378.422 1378.284 1378.204 1378.535 1379.336 1380.553 1382.126 1383.953 1385.900 1387.941 1390.301 1393.299 1396.664 1399.072
1671.376 1668.982 1662.526 1652.055 1639.584 1625.875 1609.670 1590.622 1571.284 1555.191 1543.542 1534.698 1526.241 1516.572 1504.886 1490.191 1471.396 1449.291 1427.314 1408.887 1394.651 1382.955 1372.026 1361.124 1350.372 1340.139 1330.448 1320.764 1310.414 1299.333 1288.582 1280.084 1275.259 1273.752 1273.840 1274.047 1274.031 1274.100 1274.422 1274.825 1275.066 1275.105 1275.089 1275.126 1275.221 1275.390 1275.655 1275.971 1276.259 1276.487 1276.645 1276.707 1276.692 1276.743 1277.060 1277.639 1278.192 1278.445 1278.399 1278.209 1277.977 1277.725 1277.468 1277.246 1277.109 1277.087 1277.185 1277.391 1277.694 1278.095 1278.620 1279.286 1280.077 1280.961 1281.924 1282.976 1284.140 1285.435 1286.864 1288.414 1290.066 1291.788 1293.533 1295.230 1296.811 1298.238 1299.516 1300.668 1301.717 1302.679 1303.564 1304.377 1305.118 1305.789 1306.389 1306.916 1307.377 1307.785 1308.152 1308.485 1308.790 1309.073 1309.346 1309.613 1309.874 1310.131 1310.386 1310.643 1310.906 1311.177 1311.460 1311.754 1312.058 1312.369 1312.679 1312.984 1313.278 1313.555 1313.811 1314.037 1314.219 1314.339 1314.398 1314.426 1314.451 1314.479 1314.504 1314.529 1314.575 1314.671 1314.839 1315.092 1315.448 1315.923 1316.540 1317.309 1318.200 1319.139 1320.071 1320.984 1321.890 1322.804 1323.749 1324.770 1325.934 1327.317 1328.970 1330.893 1333.028 1335.307 1337.759 1340.458 1343.304 1346.020 1348.495 1351.008 1353.981 1357.461 1360.838 1363.122 1363.821 1363.677 1364.094 1365.600 1367.440 1368.619 1368.655 1367.479 1365.241 1362.541 1360.718 1361.057 1363.260 1365.484 1366.079 1364.378 1360.128 1353.963 1348.536 1347.113 1350.405 1356.185 1362.154 1367.601 1372.319 1375.763 1377.591 1378.101 1377.995 1377.975 1378.392 1379.219 1380.315 1381.624 1383.122 1384.740 1386.431 1388.302 1390.556 1393.020 1394.768
1677.123 1676.782 1673.840 1667.353 1658.272 1646.703 1631.097 1610.893 1589.071 1570.518 1557.627 1548.747 1540.500 1530.489 1518.355 1504.431 1487.773 1467.304 1444.660 1423.666 1406.793 1393.489 1381.825 1370.564 1359.556 1349.003 1338.851 1328.676 1317.933 1306.383 1294.619 1284.301 1277.273 1273.995 1273.172 1273.141 1273.172 1273.362 1273.828 1274.346 1274.617 1274.626 1274.587 1274.653 1274.834 1275.103 1275.428 1275.739 1275.978 1276.146 1276.256 1276.307 1276.324 1276.401 1276.665 1277.130 1277.610 1277.881 1277.894 1277.750 1277.541 1277.299 1277.039 1276.799 1276.626 1276.553 1276.583 1276.706 1276.911 1277.208 1277.622 1278.161 1278.812 1279.553 1280.378 1281.303 1282.357 1283.558 1284.901 1286.366 1287.931 1289.566 1291.229 1292.869 1294.437 1295.901 1297.251 1298.492 1299.632 1300.682 1301.651 1302.540 1303.350 1304.079 1304.724 1305.285 1305.771 1306.199 1306.583 1306.929 1307.242 1307.530 1307.803 1308.069 1308.332 1308.592 1308.852 1309.115 1309.382 1309.656 1309.940 1310.234 1310.535 1310.841 1311.148 1311.450 1311.743 1312.023 1312.286 1312.526 1312.731 1312.881 1312.972 1313.030 1313.088 1313.155 1313.221 1313.281 1313.355 1313.477 1313.671 1313.946 1314.317 1314.800 1315.415 1316.177 1317.060 1317.989 1318.908 1319.812 1320.716 1321.632 1322.569 1323.554 1324.637 1325.875 1327.298 1328.892 1330.608 1332.411 1334.350 1336.523 1338.924 1341.437 1344.051 1346.959 1350.338 1354.054 1357.555 1360.030 1360.977 1360.928 1361.224 1362.575 1364.307 1365.369 1365.407 1364.525 1362.699 1360.178 1358.290 1358.745 1361.617 1364.837 1366.137 1364.697 1360.668 1354.687 1348.812 1346.254 1348.604 1354.283 1360.684 1366.582 1371.665 1375.399 1377.395 1377.953 1377.851 1377.865 1378.356 1379.229 1380.283 1381.462 1382.782 1384.206 1385.691 1387.282 1389.068 1390.904 1392.169
1682.184 1684.092 1684.879 1682.331 1676.309 1666.606 1651.861 1631.454 1608.278 1587.897 1573.659 1564.066 1555.245 1544.490 1531.682 1517.873 1502.597 1484.006 1461.980 1439.460 1419.981 1404.606 1391.899 1380.204 1368.936 1358.060 1347.408 1336.626 1325.360 1313.392 1300.987 1289.387 1280.456 1275.257 1273.152 1272.602 1272.559 1272.821 1273.374 1273.920 1274.171 1274.195 1274.210 1274.309 1274.500 1274.779 1275.096 1275.370 1275.565 1275.697 1275.778 1275.823 1275.884 1276.029 1276.303 1276.680 1277.042 1277.253 1277.274 1277.167 1276.996 1276.793 1276.566 1276.346 1276.175 1276.078 1276.057 1276.098 1276.202 1276.400 1276.723 1277.163 1277.696 1278.307 1278.997 1279.785 1280.707 1281.781 1283.002 1284.352 1285.810 1287.339 1288.901 1290.458 1291.975 1293.430 1294.809 1296.107 1297.324 1298.463 1299.525 1300.508 1301.405 1302.209 1302.914 1303.521 1304.043 1304.501 1304.912 1305.285 1305.621 1305.926 1306.211 1306.488 1306.762 1307.034 1307.306 1307.580 1307.857 1308.138 1308.427 1308.723 1309.025 1309.332 1309.639 1309.942 1310.239 1310.527 1310.803 1311.061 1311.292 1311.474 1311.598 1311.685 1311.772 1311.874 1311.978 1312.071 1312.173 1312.322 1312.542 1312.838 1313.221 1313.709 1314.321 1315.068 1315.923 1316.815 1317.699 1318.578 1319.470 1320.383 1321.320 1322.298 1323.345 1324.494 1325.760 1327.133 1328.589 1330.113 1331.744 1333.556 1335.586 1337.834 1340.380 1343.385 1346.879 1350.611 1354.072 1356.589 1357.683 1357.708 1357.858 1358.960 1360.499 1361.404 1361.351 1360.669 1359.401 1357.472 1355.834 1356.283 1359.425 1363.470 1365.687 1364.694 1360.779 1354.878 1348.746 1345.322 1346.772 1352.224 1358.986 1365.368 1370.891 1374.997 1377.220 1377.860 1377.766 1377.769 1378.262 1379.150 1380.208 1381.369 1382.646 1384.012 1385.424 1386.903 1388.489 1390.047 1391.092
